0.09961716 -0.21329042 1.27713618 1.00000000
0.21370144 -0.21367194 1.31915677 1.00000000
0.21369826 -0.12639388 1.31918087 1.00000000
0.09962162 -0.12652610 1.27715887 1.00000000
0.20396671 -0.21313282 1.31593369 1.00000000
0.21370930 -0.13460457 1.31918156 1.00000000
0.11025530 -0.12662470 1.28217017 1.00000000
0.09962114 -0.20569036 1.27713941 1.00000000
0.19291013 -0.21387498 1.31232846 1.00000000
0.21369562 -0.14220782 1.31917562 1.00000000
0.12081704 -0.12718538 1.28531140 1.00000000
0.09958791 -0.19746213 1.27712940 1.00000000
0.18299820 -0.21304677 1.30713741 1.00000000
0.21370804 -0.15041839 1.31917668 1.00000000
0.13141468 -0.12646089 1.28830402 1.00000000
0.09959267 -0.18986200 1.27713302 1.00000000
0.17224443 -0.21396681 1.30489940 1.00000000
0.21369283 -0.15802159 1.31917033 1.00000000
0.14201918 -0.12636495 1.29113905 1.00000000
0.09963189 -0.18162324 1.27714888 1.00000000
0.16242613 -0.21308308 1.29941989 1.00000000
0.21370662 -0.16623204 1.31917176 1.00000000
0.15174069 -0.12717462 1.29690422 1.00000000
0.09963471 -0.17402303 1.27715164 1.00000000
0.15173246 -0.21394717 1.29687884 1.00000000
0.21368989 -0.17383520 1.31916501 1.00000000
0.16241914 -0.12704752 1.29944053 1.00000000
0.09960595 -0.16579467 1.27714375 1.00000000
0.14202130 -0.21300841 1.29111737 1.00000000
0.21370505 -0.18204551 1.31916681 1.00000000
0.17224925 -0.12655638 1.30492453 1.00000000
0.09960956 -0.15819438 1.27714691 1.00000000
0.13140195 -0.21381608 1.28827767 1.00000000
0.21368679 -0.18964863 1.31915963 1.00000000
0.18298772 -0.12639943 1.30715789 1.00000000
0.09961289 -0.15059405 1.27714995 1.00000000
0.12081543 -0.21332978 1.28528921 1.00000000
0.21370332 -0.19785881 1.31916181 1.00000000
0.19291005 -0.12714126 1.31235261 1.00000000
0.09961595 -0.14299369 1.27715289 1.00000000
0.11022305 -0.21345612 1.28213707 1.00000000
0.21368353 -0.20546189 1.31915422 1.00000000
0.20397775 -0.12643419 1.31596125 1.00000000
0.09961917 -0.13412655 1.27715618 1.00000000
-0.20497475 0.30327943 1.16484301 1.00000000
-0.09038809 0.30308427 1.20571258 1.00000000
-0.09039273 0.38133452 1.20572456 1.00000000
-0.20503446 0.38182579 1.16481894 1.00000000
-0.10101339 0.30314780 1.20263055 1.00000000
-0.09036079 0.37440776 1.20573844 1.00000000
-0.19388558 0.38127119 1.16826727 1.00000000
-0.20498064 0.31018983 1.16484062 1.00000000
-0.11139567 0.30276775 1.19758998 1.00000000
-0.09039886 0.36681653 1.20571900 1.00000000
-0.18402317 0.38162509 1.17252077 1.00000000
-0.20498679 0.31710021 1.16483804 1.00000000
-0.12175771 0.30282043 1.19428812 1.00000000
-0.09036807 0.35988975 1.20573236 1.00000000
-0.17406595 0.38192967 1.17665066 1.00000000
-0.20499322 0.32401059 1.16483527 1.00000000
-0.13215225 0.30276156 1.19080081 1.00000000
-0.09040460 0.35229869 1.20571361 1.00000000
-0.16277518 0.38111433 1.17961146 1.00000000
-0.20493960 0.33160766 1.16486721 1.00000000
-0.14246809 0.30266145 1.18718213 1.00000000
-0.09043374 0.34597285 1.20569826 1.00000000
-0.15264200 0.38131876 1.18347904 1.00000000
-0.20499787 0.33909752 1.16483471 1.00000000
-0.15264637 0.30319615 1.18346412 1.00000000
-0.09040423 0.33904614 1.20571140 1.00000000
-0.14242388 0.38147349 1.18721851 1.00000000
-0.20500496 0.34600788 1.16483151 1.00000000
-0.16279545 0.30301579 1.17958789 1.00000000
-0.09043779 0.33145528 1.20569364 1.00000000
-0.13212414 0.38157842 1.19082846 1.00000000
-0.20501231 0.35291822 1.16482812 1.00000000
-0.17412611 0.30251624 1.17660521 1.00000000
-0.09040945 0.32452856 1.20570627 1.00000000
-0.12174613 0.38163347 1.19430760 1.00000000
-0.20495485 0.36051601 1.16486289 1.00000000
-0.18404349 0.30293588 1.17249738 1.00000000
-0.09044145 0.31693785 1.20568922 1.00000000
-0.11136436 0.38096998 1.19761951 1.00000000
-0.20496164 0.36742652 1.16486000 1.00000000
-0.19392151 0.30263441 1.16823491 1.00000000
-0.09041427 0.31001112 1.20570133 1.00000000
-0.10100129 0.38143017 1.20265037 1.00000000
-0.20496870 0.37433700 1.16485693 1.00000000
0.02681918 -0.15482752 1.16679695 1.00000000
0.11131360 -0.15481729 1.19668641 1.00000000
0.11129012 -0.03801061 1.19670284 1.00000000
0.02683819 -0.03860366 1.16682651 1.00000000
0.10386578 -0.15483249 1.19407932 1.00000000
0.11128827 -0.04873855 1.19669986 1.00000000
0.03507355 -0.03858630 1.16911630 1.00000000
0.02683741 -0.14470297 1.16680680 1.00000000
0.09540155 -0.15500691 1.19253290 1.00000000
0.11128613 -0.05946642 1.19669676 1.00000000
0.04220440 -0.03860773 1.17237085 1.00000000
0.02682759 -0.13396881 1.16680449 1.00000000
0.08794624 -0.15482315 1.18822955 1.00000000
0.11128370 -0.07019421 1.19669355 1.00000000
0.04937145 -0.03862685 1.17555739 1.00000000
0.02681946 -0.12323458 1.16680267 1.00000000
0.08058330 -0.15479740 1.18539367 1.00000000
0.11128098 -0.08092193 1.19669023 1.00000000
0.05769977 -0.03860169 1.17760797 1.00000000
0.02681300 -0.11250029 1.16680132 1.00000000
0.07330873 -0.15476629 1.18251002 1.00000000
0.11129544 -0.09105127 1.19669376 1.00000000
0.06493162 -0.03861594 1.18064749 1.00000000
0.02684576 -0.10179219 1.16681804 1.00000000
0.06494602 -0.15489540 1.18063064 1.00000000
0.11129418 -0.10177885 1.19669105 1.00000000
0.07331912 -0.03799430 1.18253718 1.00000000
0.02683810 -0.09105780 1.16681689 1.00000000
0.05767192 -0.15482965 1.17757384 1.00000000
0.11129263 -0.11250636 1.19668822 1.00000000
0.08060990 -0.03800224 1.18542776 1.00000000
0.02683213 -0.08032334 1.16681622 1.00000000
0.04936096 -0.15493492 1.17553095 1.00000000
0.11129078 -0.12323379 1.19668529 1.00000000
0.08793012 -0.03800789 1.18824745 1.00000000
0.02684106 -0.07019821 1.16682191 1.00000000
0.04221007 -0.15486207 1.17235136 1.00000000
0.11128863 -0.13396115 1.19668224 1.00000000
0.09540336 -0.03805398 1.19255768 1.00000000
0.02683609 -0.05946364 1.16682179 1.00000000
0.03506669 -0.15536424 1.16909178 1.00000000
0.11128620 -0.14468843 1.19667908 1.00000000
0.10388537 -0.03801224 1.19411106 1.00000000
0.02683280 -0.04872899 1.16682216 1.00000000
-0.16183192 0.32865748 1.06449382 1.00000000
-0.05402883 0.32884422 1.10297388 1.00000000
-0.05405687 0.41463412 1.10297229 1.00000000
-0.16172414 0.41478185 1.06456593 1.00000000
-0.06373835 0.32829966 1.09990909 1.00000000
-0.05396177 0.40655970 1.10301703 1.00000000
-0.15158185 0.41489524 1.06797360 1.00000000
-0.16176416 0.33680418 1.06453445 1.00000000
-0.07344184 0.32826367 1.09670366 1.00000000
-0.05401544 0.39841940 1.10299025 1.00000000
-0.14135573 0.41495387 1.07126103 1.00000000
-0.16175729 0.34431608 1.06453920 1.00000000
-0.08295289 0.32778030 1.09181605 1.00000000
-0.05399214 0.39089338 1.10300037 1.00000000
-0.13229067 0.41470960 1.07519099 1.00000000
-0.16180549 0.35235658 1.06451211 1.00000000
-0.09244368 0.32828047 1.08841479 1.00000000
-0.05396964 0.38336729 1.10300993 1.00000000
-0.12183637 0.41412896 1.07828041 1.00000000
-0.16179929 0.35986847 1.06451657 1.00000000
-0.10308339 0.32843050 1.08570521 1.00000000
-0.05402031 0.37522734 1.10298459 1.00000000
-0.11253226 0.41441391 1.08203423 1.00000000
-0.16179283 0.36738042 1.06452117 1.00000000
-0.11249324 0.32822809 1.08204450 1.00000000
-0.05399831 0.36770132 1.10299409 1.00000000
-0.10315052 0.41464947 1.08568086 1.00000000
-0.16177514 0.37605644 1.06453241 1.00000000
-0.12182506 0.32798499 1.07827624 1.00000000
-0.05404628 0.35956158 1.10296971 1.00000000
-0.09247375 0.41390186 1.08841082 1.00000000
-0.16176791 0.38356855 1.06453741 1.00000000
-0.13218139 0.32863251 1.07524144 1.00000000
-0.05402477 0.35203562 1.10297914 1.00000000
-0.08294811 0.41403352 1.09182994 1.00000000
-0.16176042 0.39108072 1.06454256 1.00000000
-0.14135150 0.32830757 1.07125330 1.00000000
-0.05400408 0.34450959 1.10298801 1.00000000
-0.07346928 0.41462560 1.09670170 1.00000000
-0.16181500 0.39912040 1.06451153 1.00000000
-0.15160814 0.32824057 1.06794899 1.00000000
-0.05404902 0.33637019 1.10296508 1.00000000
-0.06379452 0.41465477 1.09989361 1.00000000
-0.16180817 0.40663256 1.06451638 1.00000000
0.03676681 0.30424021 1.11265037 1.00000000
0.14875853 0.30434862 1.15325305 1.00000000
0.14872770 0.38369911 1.15325831 1.00000000
0.03674953 0.38411624 1.11265633 1.00000000
0.13902625 0.30356142 1.14872908 1.00000000
0.14881127 0.37627060 1.15328514 1.00000000
0.04689603 0.38409368 1.11608709 1.00000000
0.03672830 0.31164744 1.11263576 1.00000000
0.12826806 0.30363685 1.14507814 1.00000000
0.14881915 0.36941950 1.15328634 1.00000000
0.05716944 0.38346014 1.11941566 1.00000000
0.03674722 0.31849913 1.11264472 1.00000000
0.11873402 0.30366396 1.14170087 1.00000000
0.14875655 0.36200402 1.15326392 1.00000000
0.06742282 0.38333170 1.12258389 1.00000000
0.03670660 0.32590629 1.11262890 1.00000000
0.10813354 0.30422106 1.13778640 1.00000000
0.14883518 0.35457558 1.15328853 1.00000000
0.07781506 0.38357351 1.12707205 1.00000000
0.03672581 0.33275808 1.11263813 1.00000000
0.09765027 0.30449105 1.13514903 1.00000000
0.14877454 0.34716019 1.15326706 1.00000000
0.08712760 0.38374119 1.13094728 1.00000000
0.03674928 0.34075188 1.11264919 1.00000000
0.08709785 0.30438478 1.13092187 1.00000000
0.14878236 0.34030925 1.15326832 1.00000000
0.09764797 0.38387318 1.13516273 1.00000000
0.03677029 0.34760374 1.11265892 1.00000000
0.07776037 0.30424859 1.12703703 1.00000000
0.14878987 0.33345833 1.15326945 1.00000000
0.10810250 0.38353294 1.13779004 1.00000000
0.03672639 0.35501096 1.11264196 1.00000000
0.06739402 0.30349099 1.12255893 1.00000000
0.14879824 0.32546564 1.15327061 1.00000000
0.11873013 0.38355171 1.14171458 1.00000000
0.03674770 0.36186293 1.11265196 1.00000000
0.05711222 0.30358810 1.11937959 1.00000000
0.14880509 0.31861479 1.15327147 1.00000000
0.12823867 0.38351917 1.14508321 1.00000000
0.03670170 0.36927006 1.11263380 1.00000000
0.04688211 0.30364239 1.11606811 1.00000000
0.14875109 0.31119939 1.15325187 1.00000000
0.13896433 0.38342788 1.14872343 1.00000000
0.03672330 0.37612212 1.11264407 1.00000000
-0.19257537 0.21282061 1.01354556 1.00000000
-0.10753830 0.21212395 1.04417051 1.00000000
-0.10753339 0.33325395 1.04418627 1.00000000
-0.19258250 0.33338809 1.01355075 1.00000000
-0.11555083 0.21258284 1.04112364 1.00000000
-0.10755719 0.32258042 1.04417209 1.00000000
-0.18484720 0.33343302 1.01579894 1.00000000
-0.19257451 0.22398621 1.01354701 1.00000000
-0.12256388 0.21309980 1.03876958 1.00000000
-0.10752814 0.31138766 1.04418674 1.00000000
-0.17739988 0.33325890 1.01947013 1.00000000
-0.19253774 0.23464706 1.01357055 1.00000000
-0.13047543 0.21239499 1.03557710 1.00000000
-0.10755062 0.30071440 1.04417336 1.00000000
-0.16955919 0.33324966 1.02158495 1.00000000
-0.19253498 0.24581299 1.01357317 1.00000000
-0.13852582 0.21306752 1.03382783 1.00000000
-0.10752371 0.28952152 1.04418675 1.00000000
-0.16192205 0.33364022 1.02515433 1.00000000
-0.19258000 0.25635486 1.01354613 1.00000000
-0.14632608 0.21232538 1.03048795 1.00000000
-0.10754486 0.27884853 1.04417415 1.00000000
-0.15404453 0.33295649 1.02709615 1.00000000
-0.19257908 0.26752069 1.01354762 1.00000000
-0.15405551 0.21269266 1.02707851 1.00000000
-0.10752010 0.26765555 1.04418628 1.00000000
-0.14628594 0.33328814 1.03052264 1.00000000
-0.19257804 0.27868658 1.01354918 1.00000000
-0.16192878 0.21280241 1.02513894 1.00000000
-0.10753993 0.25698281 1.04417448 1.00000000
-0.13851612 0.33410236 1.03384530 1.00000000
-0.19257690 0.28985254 1.01355081 1.00000000
-0.16957734 0.21251560 1.02156336 1.00000000
-0.10751733 0.24578975 1.04418533 1.00000000
-0.13049572 0.33334057 1.03557764 1.00000000
-0.19253011 0.30051504 1.01358077 1.00000000
-0.17738520 0.21310237 1.01946892 1.00000000
-0.10749659 0.23459654 1.04419479 1.00000000
-0.12256136 0.33358373 1.03878342 1.00000000
-0.19252708 0.31168138 1.01358356 1.00000000
-0.18487274 0.21226799 1.01577305 1.00000000
-0.10755856 0.22331695 1.04416063 1.00000000
-0.11551126 0.33367871 1.04115794 1.00000000
-0.19258372 0.32222191 1.01354908 1.00000000
0.00110324 -0.27230596 1.07068769 1.00000000
0.08478223 -0.27208879 1.10085442 1.00000000
0.08475198 -0.15494611 1.10086161 1.00000000
0.00104343 -0.15472227 1.07067571 1.00000000
0.07679842 -0.27194224 1.09740043 1.00000000
0.08475858 -0.16498855 1.10086271 1.00000000
0.00859868 -0.15478734 1.07346179 1.00000000
0.00106195 -0.26114496 1.07067033 1.00000000
0.06899469 -0.27263440 1.09528970 1.00000000
0.08476706 -0.17614675 1.10086429 1.00000000
0.01613338 -0.15479576 1.07614989 1.00000000
0.00107301 -0.25056589 1.07067692 1.00000000
0.06121445 -0.27218981 1.09310371 1.00000000
0.08474009 -0.18673920 1.10085145 1.00000000
0.02373260 -0.15425488 1.07877977 1.00000000
0.00108321 -0.23998670 1.07068306 1.00000000
0.05445213 -0.27199735 1.08993498 1.00000000
0.08478646 -0.19734713 1.10086835 1.00000000
0.03136857 -0.15481685 1.08133838 1.00000000
0.00109254 -0.22940741 1.07068872 1.00000000
0.04678442 -0.27208411 1.08763035 1.00000000
0.08475725 -0.20793947 1.10085511 1.00000000
0.03900711 -0.15479158 1.08381143 1.00000000
0.00110100 -0.21882800 1.07069391 1.00000000
0.03899666 -0.27181636 1.08378942 1.00000000
0.08476802 -0.21909741 1.10085759 1.00000000
0.04676537 -0.15438427 1.08764021 1.00000000
0.00106752 -0.20766703 1.07068026 1.00000000
0.03134990 -0.27240227 1.08131294 1.00000000
0.08473492 -0.22968949 1.10084235 1.00000000
0.05450569 -0.15490754 1.08997612 1.00000000
0.00107612 -0.19708754 1.07068569 1.00000000
0.02373309 -0.27185159 1.07876299 1.00000000
0.08474458 -0.23973153 1.10084472 1.00000000
0.06120309 -0.15500266 1.09311730 1.00000000
0.00108386 -0.18650794 1.07069066 1.00000000
0.01615433 -0.27239592 1.07614268 1.00000000
0.08475644 -0.25088927 1.10084771 1.00000000
0.06900185 -0.15438574 1.09531153 1.00000000
0.00109072 -0.17592824 1.07069516 1.00000000
0.00855873 -0.27233880 1.07342698 1.00000000
0.08471841 -0.26148104 1.10083031 1.00000000
0.07682722 -0.15487174 1.09743110 1.00000000
0.00109670 -0.16534845 1.07069918 1.00000000
0.19860937 -0.30704188 1.09743267 1.00000000
0.30672588 -0.30657663 1.13608898 1.00000000
0.30674853 -0.24652711 1.13610838 1.00000000
0.19862729 -0.24679859 1.09744978 1.00000000
0.29666025 -0.30667657 1.13237228 1.00000000
0.30671956 -0.25190570 1.13609982 1.00000000
0.20906528 -0.24656652 1.10029762 1.00000000
0.19862192 -0.30166111 1.09743782 1.00000000
0.28661822 -0.30673140 1.12851396 1.00000000
0.30673832 -0.25779053 1.13610326 1.00000000
0.21861859 -0.24656001 1.10396801 1.00000000
0.19863408 -0.29628032 1.09744279 1.00000000
0.27689978 -0.30702100 1.12574411 1.00000000
0.30670793 -0.26316913 1.13609424 1.00000000
0.22810571 -0.24655234 1.10748486 1.00000000
0.19864584 -0.29089951 1.09744759 1.00000000
0.26690713 -0.30698750 1.12161049 1.00000000
0.30678480 -0.26848412 1.13611200 1.00000000
0.23772206 -0.24648070 1.11090808 1.00000000
0.19860129 -0.28499178 1.09743404 1.00000000
0.25729192 -0.30663244 1.11859562 1.00000000
0.30675393 -0.27386280 1.13610343 1.00000000
0.24736539 -0.24637463 1.11420524 1.00000000
0.19861317 -0.27961095 1.09743902 1.00000000
0.24736261 -0.30651280 1.11419211 1.00000000
0.30672201 -0.27924148 1.13609424 1.00000000
0.25726149 -0.24702251 1.11859949 1.00000000
0.19862465 -0.27423010 1.09744381 1.00000000
0.23773561 -0.30663602 1.11090002 1.00000000
0.30674301 -0.28512604 1.13609816 1.00000000
0.26695732 -0.24684755 1.12163728 1.00000000
0.19863573 -0.26884923 1.09744844 1.00000000
0.22813546 -0.30671823 1.10748234 1.00000000
0.30670968 -0.29050474 1.13608851 1.00000000
0.27692113 -0.24635123 1.12576310 1.00000000
0.19864641 -0.26346835 1.09745289 1.00000000
0.21856539 -0.30675937 1.10394012 1.00000000
0.30673129 -0.29638923 1.13609267 1.00000000
0.28665606 -0.24610806 1.12853729 1.00000000
0.19860608 -0.25756042 1.09744071 1.00000000
0.20902860 -0.30675941 1.10027450 1.00000000
0.30676075 -0.30119785 1.13609880 1.00000000
0.29666436 -0.24661921 1.13238678 1.00000000
0.19861688 -0.25217951 1.09744533 1.00000000
0.42081161 0.26643203 1.17207830 1.00000000
0.53655019 0.26604156 1.21387036 1.00000000
0.53663350 0.36482451 1.21390912 1.00000000
0.42080117 0.36464464 1.17210438 1.00000000
0.52640024 0.26629141 1.21010028 1.00000000
0.53657965 0.35594330 1.21390318 1.00000000
0.43174258 0.36495637 1.17630234 1.00000000
0.42078015 0.27548681 1.17207612 1.00000000
0.51559580 0.26684788 1.20748575 1.00000000
0.53652838 0.34706147 1.21389684 1.00000000
0.44219997 0.36443685 1.17917492 1.00000000
0.42080920 0.28395208 1.17208291 1.00000000
0.50500566 0.26620612 1.20227957 1.00000000
0.53661124 0.33802270 1.21389864 1.00000000
0.45242839 0.36507890 1.18425494 1.00000000
0.42077547 0.29300723 1.17208028 1.00000000
0.49481538 0.26633015 1.19801399 1.00000000
0.53656139 0.32914081 1.21389283 1.00000000
0.46286459 0.36444627 1.18679917 1.00000000
0.42079470 0.30254420 1.17208596 1.00000000
0.48390125 0.26628275 1.19485796 1.00000000
0.53658475 0.31964464 1.21389087 1.00000000
0.47377760 0.36451067 1.19030473 1.00000000
0.42082668 0.31100928 1.17209313 1.00000000
0.47375588 0.26572039 1.19027180 1.00000000
0.53659078 0.31122107 1.21388824 1.00000000
0.48400410 0.36497556 1.19489966 1.00000000
0.42079004 0.32006500 1.17209015 1.00000000
0.46286055 0.26605252 1.18676892 1.00000000
0.53654496 0.30233858 1.21388257 1.00000000
0.49482493 0.36444889 1.19804641 1.00000000
0.42075140 0.32912098 1.17208645 1.00000000
0.45238135 0.26654851 1.18421959 1.00000000
0.53656655 0.29284296 1.21388057 1.00000000
0.50503712 0.36479669 1.20231458 1.00000000
0.42084612 0.33806678 1.17210364 1.00000000
0.44217601 0.26645872 1.17914306 1.00000000
0.53657215 0.28441966 1.21387794 1.00000000
0.51564160 0.36489888 1.20752201 1.00000000
0.42080658 0.34712311 1.17210031 1.00000000
0.43173430 0.26627792 1.17627270 1.00000000
0.53653038 0.27553664 1.21387241 1.00000000
0.52646256 0.36465281 1.21013786 1.00000000
0.42084294 0.35558788 1.17210815 1.00000000
0.04969133 0.01631918 0.93752085 1.00000000
0.12243736 0.01632147 0.96407720 1.00000000
0.12245081 0.13228300 0.96409564 1.00000000
0.04968080 0.13203610 0.93752670 1.00000000
0.11618748 0.01629821 0.96022850 1.00000000
0.12243911 0.12146912 0.96408984 1.00000000
0.05634287 0.13245006 0.93900332 1.00000000
0.04968748 0.02708604 0.93752045 1.00000000
0.10922431 0.01630418 0.95810698 1.00000000
0.12245265 0.11115639 0.96409387 1.00000000
0.06309499 0.13200605 0.94156965 1.00000000
0.04968688 0.03738420 0.93752109 1.00000000
0.10228459 0.01630916 0.95592709 1.00000000
0.12244237 0.10034266 0.96408872 1.00000000
0.06985348 0.13202335 0.94406954 1.00000000
0.04969644 0.04819662 0.93752602 1.00000000
0.09637219 0.01631494 0.95417375 1.00000000
0.12245304 0.09003003 0.96409149 1.00000000
0.07667008 0.13254198 0.94652574 1.00000000
0.04969773 0.05849491 0.93752755 1.00000000
0.08947830 0.01631810 0.95188687 1.00000000
0.12244417 0.07921646 0.96408699 1.00000000
0.08262176 0.13218104 0.94955876 1.00000000
0.04968558 0.06926197 0.93752333 1.00000000
0.08261145 0.01632028 0.94954273 1.00000000
0.12245197 0.06890394 0.96408849 1.00000000
0.08947081 0.13217261 0.95189557 1.00000000
0.04968469 0.07956035 0.93752383 1.00000000
0.07666913 0.01630744 0.94651384 1.00000000
0.12243270 0.05857255 0.96408005 1.00000000
0.09640082 0.13218506 0.95419730 1.00000000
0.04970271 0.09037313 0.93753267 1.00000000
0.06986242 0.01630772 0.94406227 1.00000000
0.12243946 0.04826018 0.96408165 1.00000000
0.10229792 0.13214410 0.95594482 1.00000000
0.04970370 0.10067166 0.93753406 1.00000000
0.06308629 0.01630701 0.94155485 1.00000000
0.12243576 0.03744688 0.96407893 1.00000000
0.10921966 0.13211056 0.95811763 1.00000000
0.04970457 0.11097026 0.93753540 1.00000000
0.05634195 0.01630531 0.93899205 1.00000000
0.12243963 0.02713463 0.96407926 1.00000000
0.11621921 0.13209071 0.96025349 1.00000000
0.04968210 0.12173744 0.93752639 1.00000000
0.36037816 -0.28800386 1.00660450 1.00000000
0.46727990 -0.28829967 1.04543284 1.00000000
0.46732719 -0.20289288 1.04546086 1.00000000
0.36038273 -0.20247667 1.00662143 1.00000000
0.45743505 -0.28855813 1.04201507 1.00000000
0.46733897 -0.21034239 1.04546099 1.00000000
0.37051857 -0.20273614 1.00963306 1.00000000
0.36032265 -0.28051684 1.00659216 1.00000000
0.44752913 -0.28834990 1.03844386 1.00000000
0.46730093 -0.21831693 1.04545282 1.00000000
0.38000587 -0.20266644 1.01334977 1.00000000
0.36033168 -0.27252409 1.00659591 1.00000000
0.43831881 -0.28820381 1.03383740 1.00000000
0.46731271 -0.22576637 1.04545308 1.00000000
0.38950428 -0.20256504 1.01693978 1.00000000
0.36039264 -0.26497016 1.00661222 1.00000000
0.42884819 -0.28853345 1.03092081 1.00000000
0.46731476 -0.23416012 1.04545145 1.00000000
0.39896369 -0.20294380 1.02039201 1.00000000
0.36039934 -0.25697746 1.00661527 1.00000000
0.41901163 -0.28766980 1.02695328 1.00000000
0.46732801 -0.24160929 1.04545187 1.00000000
0.40884115 -0.20292887 1.02465458 1.00000000
0.36034915 -0.24948993 1.00660453 1.00000000
0.40886769 -0.28821985 1.02464230 1.00000000
0.46728436 -0.24958418 1.04544264 1.00000000
0.41902222 -0.20251661 1.02697334 1.00000000
0.36035675 -0.24149708 1.00660789 1.00000000
0.39897100 -0.28777797 1.02037648 1.00000000
0.46729761 -0.25703327 1.04544319 1.00000000
0.42885944 -0.20295005 1.03094145 1.00000000
0.36036393 -0.23350422 1.00661113 1.00000000
0.38949825 -0.28793332 1.01692158 1.00000000
0.46731173 -0.26448220 1.04544382 1.00000000
0.43836309 -0.20269065 1.03386465 1.00000000
0.36031963 -0.22601606 1.00660125 1.00000000
0.38003326 -0.28804681 1.01333942 1.00000000
0.46731442 -0.27287561 1.04544229 1.00000000
0.44760559 -0.20276367 1.03847704 1.00000000
0.36037083 -0.21846259 1.00661560 1.00000000
0.37052280 -0.28768216 1.00961808 1.00000000
0.46733000 -0.28032424 1.04544308 1.00000000
0.45744644 -0.20310581 1.04203671 1.00000000
0.36037699 -0.21046965 1.00661858 1.00000000
0.04403658 0.10957226 0.86355388 1.00000000
0.15540492 0.10942092 0.90348981 1.00000000
0.15541641 0.19532255 0.90350235 1.00000000
0.04404779 0.19523710 0.86356407 1.00000000
0.14571029 0.10934450 0.89928921 1.00000000
0.15540365 0.18705146 0.90349663 1.00000000
0.05463209 0.19524488 0.86692667 1.00000000
0.04403706 0.11735980 0.86355455 1.00000000
0.13537527 0.10941950 0.89651081 1.00000000
0.15543054 0.17924781 0.90350617 1.00000000
0.06441588 0.19488123 0.87064758 1.00000000
0.04403765 0.12514737 0.86355528 1.00000000
0.12499118 0.10939839 0.89262372 1.00000000
0.15541937 0.17189582 0.90350125 1.00000000
0.07431395 0.19497075 0.87427428 1.00000000
0.04403835 0.13293498 0.86355605 1.00000000
0.11462943 0.10933045 0.88858773 1.00000000
0.15540782 0.16362486 0.90349605 1.00000000
0.08428074 0.19502676 0.87778547 1.00000000
0.04403915 0.14072262 0.86355688 1.00000000
0.10532610 0.10928807 0.88491523 1.00000000
0.15539848 0.15627294 0.90349171 1.00000000
0.09513337 0.19489569 0.88065240 1.00000000
0.04404006 0.14851030 0.86355775 1.00000000
0.09510761 0.10917800 0.88063505 1.00000000
0.15542096 0.14846940 0.90349959 1.00000000
0.10529657 0.19458858 0.88490953 1.00000000
0.04404108 0.15629801 0.86355868 1.00000000
0.08426582 0.10971346 0.87777293 1.00000000
0.15541064 0.14019858 0.90349491 1.00000000
0.11463720 0.19469908 0.88859781 1.00000000
0.04404221 0.16408575 0.86355966 1.00000000
0.07430995 0.10922548 0.87426677 1.00000000
0.15540238 0.13284677 0.90349104 1.00000000
0.12498550 0.19480030 0.89262899 1.00000000
0.04404344 0.17187353 0.86356068 1.00000000
0.06442485 0.10963835 0.87064638 1.00000000
0.15542118 0.12504330 0.90349737 1.00000000
0.13540272 0.19486473 0.89652921 1.00000000
0.04404478 0.17966135 0.86356176 1.00000000
0.05463363 0.10959959 0.86692202 1.00000000
0.15538771 0.11722429 0.90348372 1.00000000
0.14572667 0.19471640 0.89930364 1.00000000
0.04404623 0.18744921 0.86356289 1.00000000
0.27196282 -0.24377333 0.93464111 1.00000000
0.38188734 -0.24351349 0.97421314 1.00000000
0.38189073 -0.17528385 0.97422594 1.00000000
0.27198279 -0.17475086 0.93465654 1.00000000
0.37168474 -0.24363213 0.97044210 1.00000000
0.38189243 -0.18115628 0.97422532 1.00000000
0.28209863 -0.17499190 0.93727469 1.00000000
0.27198383 -0.23741115 0.93464864 1.00000000
0.36149619 -0.24370799 0.96652670 1.00000000
0.38189427 -0.18702867 0.97422473 1.00000000
0.29181917 -0.17503376 0.94136699 1.00000000
0.27195266 -0.23151687 0.93463942 1.00000000
0.35164738 -0.24392231 0.96336166 1.00000000
0.38189015 -0.19380970 0.97422255 1.00000000
0.30157352 -0.17504497 0.94533374 1.00000000
0.27197292 -0.22515467 0.93464679 1.00000000
0.34180826 -0.24409725 0.96006353 1.00000000
0.38189212 -0.19968203 0.97422199 1.00000000
0.31203862 -0.17442776 0.94846636 1.00000000
0.27199217 -0.21879244 0.93465371 1.00000000
0.33162465 -0.24361854 0.95571791 1.00000000
0.38188773 -0.20646300 0.97421974 1.00000000
0.32180326 -0.17485484 0.95215695 1.00000000
0.27196325 -0.21289805 0.93464527 1.00000000
0.32182326 -0.24371068 0.95215246 1.00000000
0.38188983 -0.21233526 0.97421922 1.00000000
0.33162899 -0.17477666 0.95572972 1.00000000
0.27198174 -0.20653580 0.93465204 1.00000000
0.31204358 -0.24376319 0.94845764 1.00000000
0.38188517 -0.21911619 0.97421690 1.00000000
0.34178988 -0.17479915 0.96006975 1.00000000
0.27199923 -0.20017353 0.93465835 1.00000000
0.30156962 -0.24400313 0.94532277 1.00000000
0.38188740 -0.22498839 0.97421641 1.00000000
0.35161340 -0.17514123 0.96336402 1.00000000
0.27201569 -0.19381123 0.93466421 1.00000000
0.29183984 -0.24397427 0.94136363 1.00000000
0.38188248 -0.23176926 0.97421403 1.00000000
0.36148661 -0.17497220 0.96653579 1.00000000
0.27195012 -0.18747549 0.93464422 1.00000000
0.28209304 -0.24346716 0.93726382 1.00000000
0.38188484 -0.23764139 0.97421357 1.00000000
0.37170206 -0.17490039 0.97045807 1.00000000
0.27196696 -0.18111319 0.93465061 1.00000000
0.19104651 0.19212967 0.84899230 1.00000000
0.27438359 0.19203667 0.87933564 1.00000000
0.27438206 0.31058487 0.87934810 1.00000000
0.19102042 0.31071233 0.84899164 1.00000000
0.26663606 0.19217800 0.87706228 1.00000000
0.27435294 0.29985143 0.87933756 1.00000000
0.19855325 0.31038933 0.85199581 1.00000000
0.19101721 0.20286710 0.84898207 1.00000000
0.25960856 0.19213656 0.87415659 1.00000000
0.27439069 0.28867728 0.87934848 1.00000000
0.20605097 0.31045933 0.85490585 1.00000000
0.19103190 0.21403967 0.84898854 1.00000000
0.25173688 0.19207322 0.87091379 1.00000000
0.27436310 0.27794397 0.87933849 1.00000000
0.21357789 0.31049815 0.85774596 1.00000000
0.19104684 0.22435288 0.84899496 1.00000000
0.24404671 0.19215293 0.86841899 1.00000000
0.27439512 0.26762958 0.87934758 1.00000000
0.22119956 0.31093532 0.86053968 1.00000000
0.19101258 0.23509046 0.84898278 1.00000000
0.23637647 0.19221112 0.86585038 1.00000000
0.27436910 0.25689639 0.87933814 1.00000000
0.22877901 0.31091024 0.86323757 1.00000000
0.19102923 0.24626327 0.84899002 1.00000000
0.22877027 0.19267590 0.86322367 1.00000000
0.27434508 0.24616319 0.87932923 1.00000000
0.23638202 0.31085393 0.86586345 1.00000000
0.19104595 0.25657671 0.84899716 1.00000000
0.22118791 0.19226213 0.86052485 1.00000000
0.27437622 0.23498964 0.87933804 1.00000000
0.24407510 0.31033160 0.86844013 1.00000000
0.19106553 0.26774967 0.84900538 1.00000000
0.21358844 0.19225865 0.85773966 1.00000000
0.27435375 0.22425657 0.87932969 1.00000000
0.25171975 0.31021160 0.87092011 1.00000000
0.19102539 0.27848749 0.84899105 1.00000000
0.20601653 0.19223360 0.85488325 1.00000000
0.27437961 0.21394273 0.87933681 1.00000000
0.25969227 0.31072333 0.87419647 1.00000000
0.19104389 0.28880116 0.84899889 1.00000000
0.19851638 0.19262079 0.85197259 1.00000000
0.27435873 0.20320978 0.87932902 1.00000000
0.26668033 0.31080006 0.87708916 1.00000000
0.19106539 0.29997437 0.84900787 1.00000000
0.43289818 -0.19479685 0.92694975 1.00000000
0.54090408 -0.19483979 0.96594604 1.00000000
0.54093114 -0.12056760 0.96596642 1.00000000
0.43289504 -0.12057494 0.92696159 1.00000000
0.53116961 -0.19454643 0.96223459 1.00000000
0.54092472 -0.12725318 0.96596397 1.00000000
0.44297314 -0.12006196 0.93061433 1.00000000
0.43287495 -0.18807127 0.92694580 1.00000000
0.52176243 -0.19481824 0.95910171 1.00000000
0.54091779 -0.13393875 0.96596143 1.00000000
0.45304164 -0.12037801 0.93412085 1.00000000
0.43285346 -0.18134550 0.92694201 1.00000000
0.51137077 -0.19477346 0.95587153 1.00000000
0.54093643 -0.14099048 0.96596267 1.00000000
0.46255189 -0.12032252 0.93821239 1.00000000
0.43291096 -0.17454062 0.92695586 1.00000000
0.50153385 -0.19485947 0.95171931 1.00000000
0.54092968 -0.14767596 0.96596022 1.00000000
0.47260553 -0.12059496 0.94143492 1.00000000
0.43288968 -0.16781481 0.92695246 1.00000000
0.49212028 -0.19455236 0.94817742 1.00000000
0.54092241 -0.15436145 0.96595767 1.00000000
0.48208416 -0.12011693 0.94525535 1.00000000
0.43287015 -0.16108881 0.92694923 1.00000000
0.48208876 -0.19488760 0.94524177 1.00000000
0.54091464 -0.16104694 0.96595504 1.00000000
0.49210633 -0.12034786 0.94818962 1.00000000
0.43288961 -0.15389820 0.92695479 1.00000000
0.47256590 -0.19461386 0.94141339 1.00000000
0.54090637 -0.16773244 0.96595232 1.00000000
0.50155516 -0.12068094 0.95173790 1.00000000
0.43290158 -0.14755817 0.92695843 1.00000000
0.46250288 -0.19487717 0.93818904 1.00000000
0.54092991 -0.17478352 0.96595423 1.00000000
0.51141129 -0.12058782 0.95589349 1.00000000
0.43288401 -0.14083197 0.92695575 1.00000000
0.45305746 -0.19444375 0.93411092 1.00000000
0.54092180 -0.18146893 0.96595159 1.00000000
0.52173549 -0.12045491 0.95911308 1.00000000
0.43290064 -0.13364138 0.92696058 1.00000000
0.44298005 -0.19463838 0.93060285 1.00000000
0.54091319 -0.18815436 0.96594886 1.00000000
0.53115966 -0.12024606 0.96224935 1.00000000
0.43288485 -0.12691501 0.92695828 1.00000000
0.09099841 0.02856102 0.77778999 1.00000000
0.17630037 0.02865976 0.80869319 1.00000000
0.17632526 0.14996858 0.80871015 1.00000000
0.09102051 0.15035227 0.77780366 1.00000000
0.16843951 0.02823697 0.80592870 1.00000000
0.17630375 0.13919738 0.80870118 1.00000000
0.09917638 0.15000896 0.78086871 1.00000000
0.09100278 0.03972181 0.77779240 1.00000000
0.16062067 0.02823575 0.80309430 1.00000000
0.17631309 0.12802203 0.80870416 1.00000000
0.10657509 0.15005658 0.78340841 1.00000000
0.09099872 0.05044291 0.77779082 1.00000000
0.15283308 0.02863206 0.80018597 1.00000000
0.17632075 0.11684672 0.80870637 1.00000000
0.11479361 0.15007029 0.78631596 1.00000000
0.09100682 0.06160386 0.77779484 1.00000000
0.14524430 0.02864846 0.79805194 1.00000000
0.17630354 0.10607578 0.80869917 1.00000000
0.12226919 0.15008428 0.78872548 1.00000000
0.09101823 0.07276491 0.77780006 1.00000000
0.13753663 0.02863818 0.79500795 1.00000000
0.17631011 0.09490062 0.80870102 1.00000000
0.12988000 0.14977656 0.79190331 1.00000000
0.09099632 0.08387494 0.77779065 1.00000000
0.12987246 0.02862532 0.79189498 1.00000000
0.17631499 0.08372551 0.80870209 1.00000000
0.13753923 0.15028118 0.79501445 1.00000000
0.09100902 0.09503617 0.77779683 1.00000000
0.12225381 0.02860987 0.78871398 1.00000000
0.17630209 0.07295482 0.80869666 1.00000000
0.14527344 0.15037094 0.79806972 1.00000000
0.09100066 0.10575750 0.77779331 1.00000000
0.11480684 0.02861666 0.78631720 1.00000000
0.17630588 0.06177986 0.80869736 1.00000000
0.15285691 0.14988647 0.80020179 1.00000000
0.09101708 0.11691894 0.77780109 1.00000000
0.10654740 0.02861599 0.78339176 1.00000000
0.17630796 0.05060497 0.80869728 1.00000000
0.16063301 0.15034123 0.80310572 1.00000000
0.09100737 0.12764036 0.77779703 1.00000000
0.09917047 0.02817969 0.78086219 1.00000000
0.17629939 0.03983451 0.80869364 1.00000000
0.16844432 0.14995091 0.80593731 1.00000000
0.09099951 0.13919048 0.77779373 1.00000000
0.02817971 -0.23248245 0.70526665 1.00000000
0.14269187 -0.23245055 0.74699108 1.00000000
0.14265854 -0.11029868 0.74697936 1.00000000
0.02820147 -0.11056141 0.70527662 1.00000000
0.13225371 -0.23265241 0.74291661 1.00000000
0.14266747 -0.12165862 0.74698314 1.00000000
0.03824620 -0.11022004 0.70860334 1.00000000
0.02818424 -0.22122445 0.70526893 1.00000000
0.12197025 -0.23258071 0.73947260 1.00000000
0.14264768 -0.13260679 0.74697390 1.00000000
0.04845535 -0.11038675 0.71263991 1.00000000
0.02823637 -0.21040083 0.70529647 1.00000000
0.11174712 -0.23231350 0.73518153 1.00000000
0.14268829 -0.14359365 0.74699170 1.00000000
0.05945942 -0.11046141 0.71626994 1.00000000
0.02820066 -0.19949324 0.70527745 1.00000000
0.10099337 -0.23270763 0.73185584 1.00000000
0.14266684 -0.15454168 0.74698205 1.00000000
0.06984495 -0.11015027 0.72006247 1.00000000
0.02820384 -0.18823493 0.70527899 1.00000000
0.09022650 -0.23285033 0.72762198 1.00000000
0.14268077 -0.16590148 0.74698790 1.00000000
0.08034974 -0.11023982 0.72375193 1.00000000
0.02820670 -0.17697653 0.70528037 1.00000000
0.08032204 -0.23221369 0.72373805 1.00000000
0.14265555 -0.17684923 0.74697648 1.00000000
0.09020791 -0.11031385 0.72761376 1.00000000
0.02820926 -0.16571805 0.70528158 1.00000000
0.06983051 -0.23245548 0.72005524 1.00000000
0.14267072 -0.18820896 0.74698293 1.00000000
0.10099278 -0.11045009 0.73185689 1.00000000
0.02818274 -0.15481099 0.70526705 1.00000000
0.05943274 -0.23264693 0.71625687 1.00000000
0.14264175 -0.19915640 0.74696977 1.00000000
0.11173383 -0.11004742 0.73517699 1.00000000
0.02818675 -0.14355252 0.70526907 1.00000000
0.04849064 -0.23257177 0.71265873 1.00000000
0.14265815 -0.21051605 0.74697682 1.00000000
0.12201786 -0.11020068 0.73949671 1.00000000
0.02822072 -0.13272701 0.70528719 1.00000000
0.03829436 -0.23266312 0.70862989 1.00000000
0.14267653 -0.22187570 0.74698465 1.00000000
0.13223300 -0.11060719 0.74290997 1.00000000
0.02822159 -0.12146821 0.70528748 1.00000000
-0.01227066 -0.20558817 0.68255120 1.00000000
0.09675625 -0.20568785 0.72216656 1.00000000
0.09677877 -0.12215550 0.72217781 1.00000000
-0.01229270 -0.12206426 0.68253606 1.00000000
0.08692684 -0.20550347 0.71835522 1.00000000
0.09676293 -0.12987547 0.72217021 1.00000000
-0.00273844 -0.12226699 0.68630382 1.00000000
-0.01228893 -0.19790621 0.68254059 1.00000000
0.07654469 -0.20593907 0.71549674 1.00000000
0.09677302 -0.13723491 0.72217500 1.00000000
0.00757811 -0.12194307 0.68970549 1.00000000
-0.01230577 -0.19022436 0.68253065 1.00000000
0.06688502 -0.20567495 0.71147488 1.00000000
0.09675498 -0.14495472 0.72216627 1.00000000
0.01733709 -0.12209628 0.69327933 1.00000000
-0.01228009 -0.18298130 0.68254517 1.00000000
0.05738032 -0.20555451 0.70813744 1.00000000
0.09676583 -0.15231414 0.72217148 1.00000000
0.02719241 -0.12222414 0.69675575 1.00000000
-0.01229602 -0.17529953 0.68253582 1.00000000
0.04718704 -0.20568487 0.70417945 1.00000000
0.09674559 -0.16003377 0.72216161 1.00000000
0.03712845 -0.12235862 0.70089794 1.00000000
-0.01231052 -0.16761785 0.68252715 1.00000000
0.03717473 -0.20560735 0.70092349 1.00000000
0.09675721 -0.16739318 0.72216724 1.00000000
0.04717385 -0.12243810 0.70417175 1.00000000
-0.01228763 -0.16037444 0.68254017 1.00000000
0.02718521 -0.20565090 0.69675351 1.00000000
0.09677543 -0.17553033 0.72217591 1.00000000
0.05733629 -0.12217609 0.70811432 1.00000000
-0.01230120 -0.15269283 0.68253210 1.00000000
0.01736276 -0.20549418 0.69329481 1.00000000
0.09678967 -0.18288980 0.72218258 1.00000000
0.06687190 -0.12227793 0.71146799 1.00000000
-0.01228779 -0.14467121 0.68253959 1.00000000
0.00759848 -0.20564260 0.68971877 1.00000000
0.09676655 -0.19060919 0.72217159 1.00000000
0.07656645 -0.12246237 0.71550743 1.00000000
-0.01226880 -0.13742732 0.68255008 1.00000000
-0.00274820 -0.20586258 0.68630066 1.00000000
0.09678155 -0.19796867 0.72217867 1.00000000
0.08691397 -0.12202158 0.71834920 1.00000000
-0.01228147 -0.12974576 0.68254273 1.00000000
0.01095126 -0.00332043 0.68446251 1.00000000
0.09739798 -0.00335173 0.71616367 1.00000000
0.09741730 0.11916054 0.71617324 1.00000000
0.01096993 0.11938361 0.68446940 1.00000000
0.08983676 -0.00334742 0.71299227 1.00000000
0.09738920 0.10799177 0.71616005 1.00000000
0.01856726 0.11908371 0.68720934 1.00000000
0.01095239 0.00774085 0.68446275 1.00000000
0.08165540 -0.00334468 0.71004921 1.00000000
0.09740935 0.09687984 0.71616948 1.00000000
0.02693545 0.11958400 0.69041900 1.00000000
0.01095486 0.01880219 0.68446366 1.00000000
0.07361197 -0.00334457 0.70780976 1.00000000
0.09738721 0.08571137 0.71615896 1.00000000
0.03465517 0.11925549 0.69303479 1.00000000
0.01095288 0.03020580 0.68446255 1.00000000
0.06621779 -0.00333933 0.70444710 1.00000000
0.09740342 0.07459946 0.71616665 1.00000000
0.04247490 0.11902027 0.69637183 1.00000000
0.01095592 0.04126726 0.68446384 1.00000000
0.05827245 -0.00333861 0.70208043 1.00000000
0.09740018 0.06307330 0.71616511 1.00000000
0.05033706 0.11908706 0.69887788 1.00000000
0.01096030 0.05232880 0.68446580 1.00000000
0.05031842 -0.00333457 0.69886993 1.00000000
0.09739952 0.05231937 0.71616476 1.00000000
0.05826053 0.11917105 0.70207330 1.00000000
0.01095406 0.06373250 0.68446235 1.00000000
0.04247871 -0.00333323 0.69637552 1.00000000
0.09739767 0.04079336 0.71616385 1.00000000
0.06622836 0.11920668 0.70445157 1.00000000
0.01095902 0.07479417 0.68446469 1.00000000
0.03465156 -0.00332854 0.69303499 1.00000000
0.09739764 0.03003955 0.71616379 1.00000000
0.07361682 0.11898123 0.70781175 1.00000000
0.01096532 0.08585594 0.68446772 1.00000000
0.02692607 -0.00332659 0.69041648 1.00000000
0.09740182 0.01892772 0.71616547 1.00000000
0.08165913 0.11933959 0.71005094 1.00000000
0.01097295 0.09691783 0.68447142 1.00000000
0.01855438 -0.00332300 0.68720526 1.00000000
0.09739777 0.00775999 0.71616376 1.00000000
0.08983332 0.11901418 0.71299089 1.00000000
0.01096172 0.10832157 0.68446532 1.00000000
0.31764677 0.14030628 0.78820428 1.00000000
0.43339295 0.14016110 0.83027732 1.00000000
0.43345120 0.21948443 0.83030105 1.00000000
0.31763447 0.21980268 0.78820643 1.00000000
0.42320116 0.13986356 0.82653816 1.00000000
0.43342635 0.21266530 0.83029435 1.00000000
0.32803132 0.21978121 0.79225154 1.00000000
0.31766190 0.14756236 0.78820961 1.00000000
0.41241534 0.14007044 0.82316414 1.00000000
0.43341117 0.20508070 0.83028978 1.00000000
0.33895153 0.21956701 0.79567159 1.00000000
0.31764291 0.15444793 0.78820413 1.00000000
0.40187524 0.14004141 0.81847030 1.00000000
0.43343951 0.19784435 0.83029561 1.00000000
0.34934591 0.21984315 0.79941766 1.00000000
0.31765922 0.16170406 0.78820987 1.00000000
0.39110015 0.14018205 0.81478580 1.00000000
0.43341718 0.19102513 0.83028948 1.00000000
0.35976487 0.21930587 0.80302532 1.00000000
0.31767701 0.16896019 0.78821597 1.00000000
0.38064239 0.14037691 0.81160935 1.00000000
0.43340370 0.18344053 0.83028530 1.00000000
0.37049330 0.21962342 0.80715486 1.00000000
0.31765328 0.17661101 0.78820914 1.00000000
0.37046949 0.14033786 0.80714039 1.00000000
0.43342918 0.17620452 0.83029048 1.00000000
0.38066595 0.22006998 0.81162395 1.00000000
0.31763019 0.18349679 0.78820225 1.00000000
0.35977232 0.13997862 0.80302000 1.00000000
0.43345267 0.16896865 0.83029496 1.00000000
0.39112922 0.21938532 0.81480195 1.00000000
0.31764882 0.19075303 0.78820881 1.00000000
0.34935794 0.14008054 0.79941409 1.00000000
0.43339763 0.16180066 0.83028114 1.00000000
0.40189994 0.21955145 0.81848548 1.00000000
0.31766893 0.19800926 0.78821573 1.00000000
0.33896342 0.14015116 0.79566846 1.00000000
0.43342021 0.15456497 0.83028567 1.00000000
0.41243583 0.21998436 0.82317852 1.00000000
0.31769050 0.20526546 0.78822302 1.00000000
0.32798988 0.14029965 0.79223236 1.00000000
0.43344080 0.14732940 0.83028950 1.00000000
0.42316911 0.21969767 0.82653974 1.00000000
0.31766486 0.21215149 0.78821555 1.00000000
