-0.45253691 -0.17824599 0.79123131 1.00000000
-0.40990293 -0.17824755 0.88332569 1.00000000
-0.40992195 -0.10583915 0.88340573 1.00000000
-0.45260594 -0.10579271 0.79121756 1.00000000
-0.41386523 -0.17842926 0.87495151 1.00000000
-0.40990592 -0.11219105 0.88341708 1.00000000
-0.44872953 -0.10570876 0.79990217 1.00000000
-0.45255811 -0.17173424 0.79120137 1.00000000
-0.41762020 -0.17820879 0.86631860 1.00000000
-0.40992717 -0.11898655 0.88338008 1.00000000
-0.44460215 -0.10597682 0.80838581 1.00000000
-0.45257806 -0.16522232 0.79117377 1.00000000
-0.42134858 -0.17828082 0.85805778 1.00000000
-0.40987944 -0.12566236 0.88343149 1.00000000
-0.44099681 -0.10588417 0.81659596 1.00000000
-0.45256194 -0.15831404 0.79121600 1.00000000
-0.42483691 -0.17828405 0.84961531 1.00000000
-0.40990230 -0.13245785 0.88339249 1.00000000
-0.43709610 -0.10570058 0.82474190 1.00000000
-0.45258071 -0.15180187 0.79119066 1.00000000
-0.42916680 -0.17833595 0.84147907 1.00000000
-0.40988248 -0.13880887 0.88340866 1.00000000
-0.43327066 -0.10591035 0.83323490 1.00000000
-0.45259819 -0.14528954 0.79116775 1.00000000
-0.43324321 -0.17831685 0.83316790 1.00000000
-0.40990834 -0.14560454 0.88336582 1.00000000
-0.42918804 -0.10607740 0.84155561 1.00000000
-0.45255453 -0.13875256 0.79126220 1.00000000
-0.43706260 -0.17822636 0.82468496 1.00000000
-0.40988744 -0.15195522 0.88338338 1.00000000
-0.42487677 -0.10586021 0.84966447 1.00000000
-0.45257219 -0.13224006 0.79123904 1.00000000
-0.44093622 -0.17811034 0.81658639 1.00000000
-0.40986503 -0.15830556 0.88340285 1.00000000
-0.42135226 -0.10558729 0.85816000 1.00000000
-0.45258853 -0.12572740 0.79121836 1.00000000
-0.44460749 -0.17833159 0.80826155 1.00000000
-0.40989428 -0.16510143 0.88335570 1.00000000
-0.41761850 -0.10569932 0.86642716 1.00000000
-0.45257708 -0.11881866 0.79125165 1.00000000
-0.44872764 -0.17813986 0.79978895 1.00000000
-0.40987082 -0.17145140 0.88337651 1.00000000
-0.41389465 -0.10579043 0.87501807 1.00000000
-0.45259219 -0.11230576 0.79123334 1.00000000
-0.56511446 0.25346364 0.54450635 1.00000000
-0.52202056 0.25304618 0.63671284 1.00000000
-0.52207080 0.31891333 0.63664897 1.00000000
-0.56514514 0.31906493 0.54446008 1.00000000
-0.52612925 0.25313995 0.62853087 1.00000000
-0.52206516 0.31258887 0.63665968 1.00000000
-0.56110926 0.31913903 0.55286849 1.00000000
-0.56511729 0.25942748 0.54450351 1.00000000
-0.52978503 0.25318955 0.61975154 1.00000000
-0.52205224 0.30703621 0.63671336 1.00000000
-0.55711526 0.31909998 0.56118001 1.00000000
-0.56512011 0.26539131 0.54450038 1.00000000
-0.53373502 0.25310161 0.61137728 1.00000000
-0.52206556 0.30101916 0.63661957 1.00000000
-0.55346572 0.31887637 0.56989032 1.00000000
-0.56512292 0.27135513 0.54449696 1.00000000
-0.53781284 0.25341485 0.60298518 1.00000000
-0.52205997 0.29469487 0.63663000 1.00000000
-0.54961534 0.31889943 0.57789393 1.00000000
-0.56512573 0.27731893 0.54449327 1.00000000
-0.54155474 0.25284992 0.59452228 1.00000000
-0.52204746 0.28914190 0.63668143 1.00000000
-0.54566005 0.31894376 0.58664997 1.00000000
-0.56512853 0.28328272 0.54448930 1.00000000
-0.54562361 0.25339115 0.58667463 1.00000000
-0.52204214 0.28281741 0.63669031 1.00000000
-0.54158954 0.31873803 0.59452999 1.00000000
-0.56513132 0.28924648 0.54448506 1.00000000
-0.54957658 0.25344786 0.57798764 1.00000000
-0.52203011 0.27726393 0.63673894 1.00000000
-0.53785364 0.31887146 0.60293862 1.00000000
-0.56513410 0.29521022 0.54448057 1.00000000
-0.55343011 0.25303211 0.56995064 1.00000000
-0.52204236 0.27124873 0.63665130 1.00000000
-0.53376530 0.31858066 0.61142711 1.00000000
-0.56513687 0.30117394 0.54447581 1.00000000
-0.55708354 0.25316911 0.56105255 1.00000000
-0.52203710 0.26492442 0.63665983 1.00000000
-0.52981070 0.31896923 0.61983285 1.00000000
-0.56513963 0.30713763 0.54447081 1.00000000
-0.56107639 0.25335942 0.55283393 1.00000000
-0.52202551 0.25937066 0.63670601 1.00000000
-0.52614240 0.31891340 0.62868440 1.00000000
-0.56514239 0.31310130 0.54446556 1.00000000
-0.42989701 -0.12891961 0.68236338 1.00000000
-0.39853937 -0.12936538 0.75062845 1.00000000
-0.39860125 -0.03211738 0.75064875 1.00000000
-0.42993611 -0.03187088 0.68242476 1.00000000
-0.40114589 -0.12936315 0.74420019 1.00000000
-0.39859259 -0.04061981 0.75065372 1.00000000
-0.42721366 -0.03195479 0.68907180 1.00000000
-0.42991604 -0.12044326 0.68232298 1.00000000
-0.40454599 -0.12940679 0.73828753 1.00000000
-0.39859275 -0.04949737 0.75063995 1.00000000
-0.42455545 -0.03197353 0.69485414 1.00000000
-0.42991556 -0.11162686 0.68234037 1.00000000
-0.40686888 -0.12933764 0.73172361 1.00000000
-0.39859435 -0.05837476 0.75062322 1.00000000
-0.42153336 -0.03199423 0.70136786 1.00000000
-0.42991549 -0.10281023 0.68235657 1.00000000
-0.40998469 -0.12932740 0.72568407 1.00000000
-0.39859738 -0.06725197 0.75060354 1.00000000
-0.41859394 -0.03165434 0.70707284 1.00000000
-0.42991583 -0.09399337 0.68237158 1.00000000
-0.41301009 -0.12927224 0.71946066 1.00000000
-0.39858434 -0.07649343 0.75061638 1.00000000
-0.41588467 -0.03205738 0.71334964 1.00000000
-0.42991658 -0.08517629 0.68238537 1.00000000
-0.41583852 -0.12920829 0.71330326 1.00000000
-0.39856833 -0.08499493 0.75063630 1.00000000
-0.41303075 -0.03171166 0.71956945 1.00000000
-0.42991776 -0.07635899 0.68239793 1.00000000
-0.41854654 -0.12947348 0.70702966 1.00000000
-0.39857162 -0.09387160 0.75061617 1.00000000
-0.41003829 -0.03171976 0.72571589 1.00000000
-0.42991936 -0.06754147 0.68240925 1.00000000
-0.42151466 -0.12936694 0.70125114 1.00000000
-0.39857632 -0.10274810 0.75059315 1.00000000
-0.40689498 -0.03209884 0.73181783 1.00000000
-0.42992138 -0.05872375 0.68241931 1.00000000
-0.42451524 -0.12925585 0.69479442 1.00000000
-0.39858239 -0.11162443 0.75056728 1.00000000
-0.40460013 -0.03174899 0.73832149 1.00000000
-0.42993310 -0.04950718 0.68240150 1.00000000
-0.42718155 -0.12948233 0.68898925 1.00000000
-0.39858983 -0.12050059 0.75053862 1.00000000
-0.40117103 -0.03211001 0.74429589 1.00000000
-0.42993439 -0.04068913 0.68241376 1.00000000
-0.48039524 0.27460893 0.51111568 1.00000000
-0.44014661 0.27445348 0.59800845 1.00000000
-0.44015743 0.34646461 0.59813478 1.00000000
-0.48042490 0.34661279 0.51112596 1.00000000
-0.44358736 0.27431644 0.58988656 1.00000000
-0.44019175 0.34001050 0.59794495 1.00000000
-0.47663720 0.34656546 0.51868999 1.00000000
-0.48039798 0.28124371 0.51111587 1.00000000
-0.44727760 0.27495379 0.58241873 1.00000000
-0.44016629 0.33372576 0.59805797 1.00000000
-0.47318951 0.34660026 0.52688771 1.00000000
-0.48040073 0.28787854 0.51111593 1.00000000
-0.45061447 0.27463887 0.57413086 1.00000000
-0.44017554 0.32698916 0.59799424 1.00000000
-0.46980435 0.34652054 0.53499784 1.00000000
-0.48040347 0.29451342 0.51111584 1.00000000
-0.45465981 0.27467228 0.56622650 1.00000000
-0.44015077 0.32070344 0.59810369 1.00000000
-0.46549611 0.34683044 0.54259830 1.00000000
-0.48040622 0.30114833 0.51111563 1.00000000
-0.45841793 0.27459157 0.55831824 1.00000000
-0.44015986 0.31396731 0.59804083 1.00000000
-0.46190244 0.34649765 0.55062734 1.00000000
-0.48040778 0.30754655 0.51121243 1.00000000
-0.46187585 0.27487456 0.55057127 1.00000000
-0.44016860 0.30723176 0.59797968 1.00000000
-0.45845027 0.34657830 0.55832242 1.00000000
-0.48041232 0.31367276 0.51103047 1.00000000
-0.46546908 0.27460203 0.54253920 1.00000000
-0.44014473 0.30094498 0.59808452 1.00000000
-0.45468070 0.34674471 0.56632139 1.00000000
-0.48041508 0.32030720 0.51102870 1.00000000
-0.46977754 0.27466648 0.53492908 1.00000000
-0.44015330 0.29420989 0.59802431 1.00000000
-0.45064829 0.34629269 0.57413075 1.00000000
-0.48041784 0.32694167 0.51102684 1.00000000
-0.47315552 0.27468192 0.52695763 1.00000000
-0.44013021 0.28792217 0.59812509 1.00000000
-0.44730145 0.34667095 0.58248271 1.00000000
-0.48042061 0.33357618 0.51102490 1.00000000
-0.47660884 0.27436307 0.51862185 1.00000000
-0.44013860 0.28118755 0.59806583 1.00000000
-0.44361460 0.34631586 0.58993024 1.00000000
-0.48042215 0.33997749 0.51112678 1.00000000
-0.39254423 0.25435244 0.65658379 1.00000000
-0.35005972 0.25411366 0.74660464 1.00000000
-0.35004472 0.32071050 0.74672349 1.00000000
-0.39258468 0.32050892 0.65657370 1.00000000
-0.35384359 0.25431433 0.73883211 1.00000000
-0.35007182 0.31459633 0.74666349 1.00000000
-0.38864140 0.32074788 0.66464879 1.00000000
-0.39256987 0.26005349 0.65651678 1.00000000
-0.35780438 0.25406990 0.73018688 1.00000000
-0.35009819 0.30848213 0.74660485 1.00000000
-0.38489258 0.32057803 0.67305352 1.00000000
-0.39254948 0.26615403 0.65658789 1.00000000
-0.36177153 0.25414207 0.72207758 1.00000000
-0.35012382 0.30236791 0.74654760 1.00000000
-0.38087238 0.32099549 0.68139434 1.00000000
-0.39256837 0.27257725 0.65654222 1.00000000
-0.36550384 0.25411009 0.71385804 1.00000000
-0.35008275 0.29659812 0.74661823 1.00000000
-0.37716942 0.32064048 0.68953087 1.00000000
-0.39259554 0.27827796 0.65647054 1.00000000
-0.36899964 0.25397398 0.70553201 1.00000000
-0.35010783 0.29048402 0.74656205 1.00000000
-0.37321936 0.32087784 0.69759331 1.00000000
-0.39257437 0.28437907 0.65654402 1.00000000
-0.37314355 0.25426319 0.69767560 1.00000000
-0.35013212 0.28436990 0.74650736 1.00000000
-0.36896833 0.32063444 0.70570105 1.00000000
-0.39255247 0.29048052 0.65661965 1.00000000
-0.37714759 0.25442174 0.68948492 1.00000000
-0.35009255 0.27860053 0.74657515 1.00000000
-0.36547725 0.32080249 0.71401239 1.00000000
-0.39257242 0.29690371 0.65657082 1.00000000
-0.38086028 0.25413010 0.68132228 1.00000000
-0.35004933 0.27211017 0.74664884 1.00000000
-0.36175007 0.32084013 0.72221738 1.00000000
-0.39260109 0.30260416 0.65649464 1.00000000
-0.38488631 0.25451829 0.67296577 1.00000000
-0.35007330 0.26599631 0.74659482 1.00000000
-0.35778846 0.32074732 0.73031226 1.00000000
-0.39257848 0.30870618 0.65657246 1.00000000
-0.38865233 0.25407702 0.66450914 1.00000000
-0.35003634 0.26022740 0.74665751 1.00000000
-0.35390197 0.32061403 0.73880765 1.00000000
-0.39255519 0.31480855 0.65665224 1.00000000
-0.46878708 0.17759343 0.46232975 1.00000000
-0.43698651 0.17774934 0.53093211 1.00000000
-0.43701088 0.27908417 0.53111963 1.00000000
-0.46883162 0.27910578 0.46245694 1.00000000
-0.43990408 0.17794619 0.52494232 1.00000000
-0.43701352 0.26934200 0.53104867 1.00000000
-0.46611137 0.27874034 0.46883590 1.00000000
-0.46879445 0.18706892 0.46239275 1.00000000
-0.44302612 0.17811341 0.51881476 1.00000000
-0.43700982 0.26032631 0.53104827 1.00000000
-0.46350341 0.27882782 0.47531259 1.00000000
-0.46879343 0.19604144 0.46232533 1.00000000
-0.44597213 0.17776562 0.51258168 1.00000000
-0.43700614 0.25131072 0.53104761 1.00000000
-0.46001595 0.27863685 0.48119811 1.00000000
-0.46880109 0.20551875 0.46239268 1.00000000
-0.44872983 0.17784459 0.50648696 1.00000000
-0.43700249 0.24229523 0.53104666 1.00000000
-0.45733008 0.27880586 0.48753166 1.00000000
-0.46879966 0.21448949 0.46231888 1.00000000
-0.45166310 0.17813383 0.50019882 1.00000000
-0.43699042 0.23302540 0.53113367 1.00000000
-0.45444187 0.27867070 0.49398622 1.00000000
-0.46880759 0.22396870 0.46239041 1.00000000
-0.45440440 0.17765175 0.49387712 1.00000000
-0.43700062 0.22354171 0.53098395 1.00000000
-0.45170083 0.27870387 0.50025125 1.00000000
-0.46881038 0.23271965 0.46238471 1.00000000
-0.45729177 0.17785066 0.48749434 1.00000000
-0.43699688 0.21452709 0.53098404 1.00000000
-0.44877132 0.27889959 0.50644430 1.00000000
-0.46881868 0.24220176 0.46246251 1.00000000
-0.45997837 0.17776778 0.48120430 1.00000000
-0.43698553 0.20525587 0.53106349 1.00000000
-0.44601003 0.27880697 0.51262629 1.00000000
-0.46881667 0.25116957 0.46237924 1.00000000
-0.46346929 0.17801145 0.47540880 1.00000000
-0.43698211 0.19624075 0.53106006 1.00000000
-0.44306592 0.27864067 0.51882711 1.00000000
-0.46882522 0.26065376 0.46246072 1.00000000
-0.46608160 0.17807529 0.46898178 1.00000000
-0.43697873 0.18722575 0.53105626 1.00000000
-0.43994502 0.27864648 0.52494560 1.00000000
-0.46882284 0.26961946 0.46237196 1.00000000
-0.38833678 -0.22697578 0.61051963 1.00000000
-0.35715009 -0.22726745 0.67782877 1.00000000
-0.35721697 -0.12938236 0.67780273 1.00000000
-0.38836040 -0.12877836 0.61061137 1.00000000
-0.35982454 -0.22733470 0.67118952 1.00000000
-0.35720956 -0.13825109 0.67780851 1.00000000
-0.38574626 -0.12917169 0.61724525 1.00000000
-0.38832916 -0.21794115 0.61056493 1.00000000
-0.36261913 -0.22747347 0.66531616 1.00000000
-0.35720156 -0.14711968 0.67781575 1.00000000
-0.38258764 -0.12906757 0.62313160 1.00000000
-0.38834758 -0.20920516 0.61051167 1.00000000
-0.36587956 -0.22723136 0.65913841 1.00000000
-0.35719300 -0.15598813 0.67782440 1.00000000
-0.37980172 -0.12895894 0.62882645 1.00000000
-0.38834044 -0.20016990 0.61055515 1.00000000
-0.36840908 -0.22727098 0.65318520 1.00000000
-0.35718388 -0.16485645 0.67783443 1.00000000
-0.37727477 -0.12887909 0.63512616 1.00000000
-0.38835754 -0.19143419 0.61050682 1.00000000
-0.37134285 -0.22731211 0.64705401 1.00000000
-0.35717423 -0.17372464 0.67784580 1.00000000
-0.37457611 -0.12916238 0.64147164 1.00000000
-0.38835091 -0.18239832 0.61054845 1.00000000
-0.37459779 -0.22731555 0.64124611 1.00000000
-0.35720075 -0.18292978 0.67776582 1.00000000
-0.37140831 -0.12928994 0.64701510 1.00000000
-0.38834502 -0.17336191 0.61058724 1.00000000
-0.37724894 -0.22725225 0.63504582 1.00000000
-0.35719161 -0.19179757 0.67777592 1.00000000
-0.36845267 -0.12912306 0.65321267 1.00000000
-0.38836049 -0.16462636 0.61054501 1.00000000
-0.37975589 -0.22713958 0.62881214 1.00000000
-0.35718196 -0.20066522 0.67778731 1.00000000
-0.36588056 -0.12933795 0.65928500 1.00000000
-0.38835515 -0.15558936 0.61058179 1.00000000
-0.38256210 -0.22738313 0.62304897 1.00000000
-0.35717181 -0.20953276 0.67779995 1.00000000
-0.36264127 -0.12910916 0.66540412 1.00000000
-0.38836915 -0.14685399 0.61054504 1.00000000
-0.38570409 -0.22731361 0.61722151 1.00000000
-0.35716118 -0.21840016 0.67781378 1.00000000
-0.35983002 -0.12888141 0.67132036 1.00000000
-0.38836437 -0.13781641 0.61057975 1.00000000
-0.28745483 -0.25622049 0.74274842 1.00000000
-0.24722191 -0.25635653 0.82961229 1.00000000
-0.24723189 -0.20577325 0.82965709 1.00000000
-0.28741843 -0.20600129 0.74287249 1.00000000
-0.25056260 -0.25639424 0.82159266 1.00000000
-0.24722185 -0.21078917 0.82966417 1.00000000
-0.28375793 -0.20567909 0.75067690 1.00000000
-0.28746448 -0.25172368 0.74273665 1.00000000
-0.25390742 -0.25636613 0.81382175 1.00000000
-0.24718222 -0.21510520 0.82970969 1.00000000
-0.27985018 -0.20559481 0.75844977 1.00000000
-0.28747390 -0.24722679 0.74272528 1.00000000
-0.25781883 -0.25635993 0.80582120 1.00000000
-0.24723413 -0.21984852 0.82963823 1.00000000
-0.27597384 -0.20616433 0.76655810 1.00000000
-0.28748310 -0.24272981 0.74271432 1.00000000
-0.26173177 -0.25628706 0.79808714 1.00000000
-0.24719349 -0.22416414 0.82968505 1.00000000
-0.27258860 -0.20603789 0.77443470 1.00000000
-0.28741974 -0.23785683 0.74283237 1.00000000
-0.26546664 -0.25610995 0.79018670 1.00000000
-0.24724739 -0.22890797 0.82961105 1.00000000
-0.26902693 -0.20583111 0.78216879 1.00000000
-0.28742950 -0.23335985 0.74282042 1.00000000
-0.26903952 -0.25652539 0.78209108 1.00000000
-0.24720576 -0.23322317 0.82965914 1.00000000
-0.26555524 -0.20598138 0.79011334 1.00000000
-0.28743904 -0.22886278 0.74280887 1.00000000
-0.27261469 -0.25618477 0.77433562 1.00000000
-0.24719456 -0.23823835 0.82966769 1.00000000
-0.26176531 -0.20594113 0.79809676 1.00000000
-0.28744834 -0.22436563 0.74279773 1.00000000
-0.27594685 -0.25604751 0.76654362 1.00000000
-0.24715095 -0.24255273 0.82971825 1.00000000
-0.25787595 -0.20622203 0.80579894 1.00000000
-0.28745739 -0.21986840 0.74278703 1.00000000
-0.27985516 -0.25630297 0.75838206 1.00000000
-0.24720778 -0.24729738 0.82964057 1.00000000
-0.25395607 -0.20575224 0.81381369 1.00000000
-0.28746620 -0.21537108 0.74277676 1.00000000
-0.28371040 -0.25612180 0.75069907 1.00000000
-0.24716326 -0.25161132 0.82969230 1.00000000
-0.25063957 -0.20600162 0.82154897 1.00000000
-0.28740899 -0.21049862 0.74288386 1.00000000
-0.20027846 0.22254485 0.91896263 1.00000000
-0.15693021 0.22252187 1.01212138 1.00000000
-0.15688454 0.30471210 1.01224292 1.00000000
-0.20037748 0.30501133 0.91896966 1.00000000
-0.16162652 0.22276507 1.00374516 1.00000000
-0.15696199 0.29743336 1.01219408 1.00000000
-0.19668748 0.30509275 0.92758301 1.00000000
-0.20025732 0.22997178 0.91898960 1.00000000
-0.16510397 0.22231028 0.99534676 1.00000000
-0.15685841 0.28958362 1.01223845 1.00000000
-0.19282844 0.30502126 0.93588115 1.00000000
-0.20030049 0.23717828 0.91895998 1.00000000
-0.16863824 0.22227093 0.98672437 1.00000000
-0.15693367 0.28230322 1.01219076 1.00000000
-0.18893556 0.30501812 0.94452424 1.00000000
-0.20027889 0.24460521 0.91898736 1.00000000
-0.17310737 0.22229190 0.97839919 1.00000000
-0.15683394 0.27445715 1.01223312 1.00000000
-0.18479685 0.30504870 0.95287986 1.00000000
-0.20039002 0.25252318 0.91889893 1.00000000
-0.17647926 0.22218918 0.96984904 1.00000000
-0.15684409 0.26734290 1.01221939 1.00000000
-0.18075774 0.30473625 0.96140340 1.00000000
-0.20036930 0.25995089 0.91892556 1.00000000
-0.18064577 0.22234827 0.96138760 1.00000000
-0.15691549 0.26005977 1.01217371 1.00000000
-0.17648975 0.30464054 0.96993774 1.00000000
-0.20034760 0.26737819 0.91895304 1.00000000
-0.18471764 0.22238952 0.95284341 1.00000000
-0.15682149 0.25221868 1.01221309 1.00000000
-0.17305477 0.30462086 0.97852930 1.00000000
-0.20032495 0.27480505 0.91898136 1.00000000
-0.18891467 0.22281754 0.94444600 1.00000000
-0.15689040 0.24493396 1.01216871 1.00000000
-0.16873136 0.30492101 0.98676411 1.00000000
-0.20030140 0.28223147 0.91901046 1.00000000
-0.19281103 0.22261904 0.93580090 1.00000000
-0.15695619 0.23764721 1.01212591 1.00000000
-0.16516136 0.30475369 0.99541059 1.00000000
-0.20027697 0.28965743 0.91904032 1.00000000
-0.19665958 0.22252690 0.92751228 1.00000000
-0.15686719 0.22981010 1.01216273 1.00000000
-0.16162533 0.30515495 1.00384344 1.00000000
-0.20025172 0.29708294 0.91907089 1.00000000
-0.28096257 0.01368465 0.56081523 1.00000000
-0.25379889 0.01355422 0.61901766 1.00000000
-0.25380520 0.11034033 0.61910655 1.00000000
-0.28098421 0.11052870 0.56086257 1.00000000
-0.25643461 0.01354987 0.61348321 1.00000000
-0.25379396 0.10178901 0.61912580 1.00000000
-0.27853648 0.11047616 0.56616205 1.00000000
-0.28096794 0.02235665 0.56080793 1.00000000
-0.25872593 0.01354656 0.60877623 1.00000000
-0.25381321 0.09288545 0.61906725 1.00000000
-0.27598898 0.11040166 0.57145284 1.00000000
-0.28096878 0.03140940 0.56081636 1.00000000
-0.26117980 0.01384217 0.60318472 1.00000000
-0.25380284 0.08433443 0.61908433 1.00000000
-0.27383035 0.11060794 0.57645423 1.00000000
-0.28096083 0.04018229 0.56085418 1.00000000
-0.26352988 0.01383253 0.59757869 1.00000000
-0.25381777 0.07543147 0.61903670 1.00000000
-0.27109028 0.11049267 0.58172352 1.00000000
-0.28097080 0.04885455 0.56083125 1.00000000
-0.26606793 0.01382736 0.59259053 1.00000000
-0.25378970 0.06657158 0.61909832 1.00000000
-0.26903077 0.11041913 0.58739820 1.00000000
-0.28096939 0.05790804 0.56084737 1.00000000
-0.26900438 0.01382407 0.58736395 1.00000000
-0.25380259 0.05766912 0.61905605 1.00000000
-0.26608936 0.11025857 0.59263923 1.00000000
-0.28098408 0.06658008 0.56080801 1.00000000
-0.27106789 0.01373269 0.58167807 1.00000000
-0.25381177 0.04876696 0.61902307 1.00000000
-0.26353533 0.11075668 0.59767288 1.00000000
-0.28096881 0.07535458 0.56087117 1.00000000
-0.27380360 0.01372235 0.57642252 1.00000000
-0.25380463 0.04021666 0.61903196 1.00000000
-0.26118091 0.11061461 0.60328975 1.00000000
-0.28098656 0.08402648 0.56082137 1.00000000
-0.27597581 0.01370914 0.57137828 1.00000000
-0.25380034 0.03100553 0.61903285 1.00000000
-0.25875413 0.11075207 0.60880861 1.00000000
-0.28098429 0.09308083 0.56084046 1.00000000
-0.27851892 0.01369728 0.56610123 1.00000000
-0.25379647 0.02245550 0.61903335 1.00000000
-0.25644599 0.11054828 0.61355980 1.00000000
-0.28096221 0.10185712 0.56092685 1.00000000
-0.13824534 -0.24076851 0.78493006 1.00000000
-0.09842656 -0.24042312 0.87106738 1.00000000
-0.09834855 -0.16930883 0.87121208 1.00000000
-0.13824497 -0.16930341 0.78499660 1.00000000
-0.10191126 -0.24068583 0.86313502 1.00000000
-0.09843580 -0.17596914 0.87112138 1.00000000
-0.13475554 -0.16957739 0.79260193 1.00000000
-0.13817182 -0.23392789 0.78503453 1.00000000
-0.10521278 -0.24037386 0.85540645 1.00000000
-0.09840300 -0.18217136 0.87114700 1.00000000
-0.13119912 -0.16913472 0.80047379 1.00000000
-0.13814296 -0.22774137 0.78507875 1.00000000
-0.10940053 -0.24058114 0.84758051 1.00000000
-0.09843479 -0.18903238 0.87110960 1.00000000
-0.12764113 -0.16927437 0.80849090 1.00000000
-0.13819074 -0.22131414 0.78502095 1.00000000
-0.11262517 -0.24071767 0.83960337 1.00000000
-0.09840028 -0.19523356 0.87113687 1.00000000
-0.12401617 -0.16910644 0.81622239 1.00000000
-0.13823663 -0.21488602 0.78496562 1.00000000
-0.11643375 -0.24045766 0.83184995 1.00000000
-0.09843384 -0.20209519 0.87109776 1.00000000
-0.12028413 -0.16910077 0.82418916 1.00000000
-0.13816867 -0.20804733 0.78506266 1.00000000
-0.12034779 -0.24054455 0.82404777 1.00000000
-0.09846462 -0.20809974 0.87106217 1.00000000
-0.11653257 -0.16944996 0.83180573 1.00000000
-0.13821307 -0.20161845 0.78500935 1.00000000
-0.12413390 -0.24051453 0.81601446 1.00000000
-0.09856950 -0.21476792 0.87095428 1.00000000
-0.11256288 -0.16951460 0.83973947 1.00000000
-0.13818642 -0.19543232 0.78505064 1.00000000
-0.12781210 -0.24060733 0.80821388 1.00000000
-0.09846513 -0.22116271 0.87104893 1.00000000
-0.10939174 -0.16940053 0.84765811 1.00000000
-0.13822838 -0.18900239 0.78500057 1.00000000
-0.13136131 -0.24059127 0.80020199 1.00000000
-0.09857430 -0.22783323 0.87093690 1.00000000
-0.10524433 -0.16930321 0.85544248 1.00000000
-0.13816675 -0.18216551 0.78508916 1.00000000
-0.13480976 -0.24071913 0.79246541 1.00000000
-0.09846562 -0.23422528 0.87103570 1.00000000
-0.10185012 -0.16924538 0.86326532 1.00000000
-0.13820702 -0.17573486 0.78504135 1.00000000
-0.24066296 0.09143451 0.51317695 1.00000000
-0.19909630 0.09153524 0.60323168 1.00000000
-0.19906612 0.16304384 0.60336912 1.00000000
-0.24066120 0.16287430 0.51326070 1.00000000
-0.20282770 0.09171991 0.59486497 1.00000000
-0.19907203 0.15636856 0.60334877 1.00000000
-0.23677709 0.16274305 0.52155001 1.00000000
-0.24065746 0.09819550 0.51320487 1.00000000
-0.20661794 0.09155546 0.58697583 1.00000000
-0.19907753 0.14969343 0.60332943 1.00000000
-0.23301436 0.16293274 0.52979833 1.00000000
-0.24066053 0.10431826 0.51319997 1.00000000
-0.21021958 0.09134817 0.57904327 1.00000000
-0.19907750 0.14365594 0.60332409 1.00000000
-0.22910288 0.16292365 0.53778101 1.00000000
-0.24065406 0.11107979 0.51323152 1.00000000
-0.21407265 0.09146626 0.57092110 1.00000000
-0.19908235 0.13698105 0.60330632 1.00000000
-0.22560493 0.16304422 0.54643035 1.00000000
-0.24067878 0.11745543 0.51314562 1.00000000
-0.21777313 0.09147034 0.56260545 1.00000000
-0.19908675 0.13030631 0.60328966 1.00000000
-0.22168110 0.16291142 0.55418629 1.00000000
-0.24064984 0.12396482 0.51326125 1.00000000
-0.22165864 0.09152054 0.55418493 1.00000000
-0.19904548 0.12396874 0.60338418 1.00000000
-0.21777025 0.16314126 0.56268175 1.00000000
-0.24067672 0.13033981 0.51316726 1.00000000
-0.22559573 0.09157459 0.54638872 1.00000000
-0.19908990 0.11759463 0.60327061 1.00000000
-0.21404869 0.16303474 0.57105460 1.00000000
-0.24066949 0.13710209 0.51320174 1.00000000
-0.22908453 0.09144810 0.53776938 1.00000000
-0.19909309 0.11092026 0.60325688 1.00000000
-0.21021148 0.16277418 0.57913093 1.00000000
-0.24067382 0.14322491 0.51319208 1.00000000
-0.23303518 0.09169690 0.52965450 1.00000000
-0.19905697 0.10458265 0.60333891 1.00000000
-0.20659402 0.16282219 0.58710293 1.00000000
-0.24066571 0.14998780 0.51322983 1.00000000
-0.23676664 0.09126445 0.52151234 1.00000000
-0.19906142 0.09790842 0.60332214 1.00000000
-0.20283556 0.16308937 0.59490972 1.00000000
-0.24065693 0.15675114 0.51327008 1.00000000
-0.14831142 -0.20374644 0.69013553 1.00000000
-0.10671098 -0.20389243 0.77859660 1.00000000
-0.10669230 -0.14634414 0.77867144 1.00000000
-0.14836346 -0.14631937 0.69009146 1.00000000
-0.11096247 -0.20401521 0.77026056 1.00000000
-0.10666757 -0.15111260 0.77870022 1.00000000
-0.14444246 -0.14593878 0.69790451 1.00000000
-0.14835879 -0.19874362 0.69005573 1.00000000
-0.11429244 -0.20378367 0.76250909 1.00000000
-0.10667829 -0.15651808 0.77868126 1.00000000
-0.14050780 -0.14614901 0.70606069 1.00000000
-0.14831673 -0.19338931 0.69013481 1.00000000
-0.11836390 -0.20372161 0.75417228 1.00000000
-0.10668965 -0.16192367 0.77866144 1.00000000
-0.13717954 -0.14637383 0.71436278 1.00000000
-0.14827634 -0.18803518 0.69021088 1.00000000
-0.12165714 -0.20372404 0.74631199 1.00000000
-0.10670163 -0.16732936 0.77864079 1.00000000
-0.13286076 -0.14608287 0.72235224 1.00000000
-0.14839237 -0.18274856 0.69000956 1.00000000
-0.12548219 -0.20373140 0.73814155 1.00000000
-0.10667446 -0.17209687 0.77867283 1.00000000
-0.12924023 -0.14617213 0.73034990 1.00000000
-0.14835230 -0.17739440 0.69008516 1.00000000
-0.12928193 -0.20366624 0.73023618 1.00000000
-0.10668666 -0.17750251 0.77865189 1.00000000
-0.12548150 -0.14619750 0.73819148 1.00000000
-0.14839451 -0.17239038 0.69001445 1.00000000
-0.13286642 -0.20376960 0.72229447 1.00000000
-0.10669945 -0.18290826 0.77863017 1.00000000
-0.12168327 -0.14617365 0.74632236 1.00000000
-0.14835619 -0.16703634 0.69008697 1.00000000
-0.13714395 -0.20363245 0.71437287 1.00000000
-0.10671280 -0.18831414 0.77860771 1.00000000
-0.11837973 -0.14640926 0.75419853 1.00000000
-0.14839642 -0.16203192 0.69001976 1.00000000
-0.14053402 -0.20391761 0.70596793 1.00000000
-0.10668338 -0.19308065 0.77864273 1.00000000
-0.11439805 -0.14626504 0.76241025 1.00000000
-0.14835991 -0.15667799 0.69008906 1.00000000
-0.14442765 -0.20385944 0.69788147 1.00000000
-0.10669692 -0.19848648 0.77862001 1.00000000
-0.11092872 -0.14637623 0.77035660 1.00000000
-0.14832536 -0.15132423 0.69015483 1.00000000
-0.14566145 0.16058915 0.59225600 1.00000000
-0.11470902 0.16086944 0.65926599 1.00000000
-0.11474703 0.25969543 0.65926745 1.00000000
-0.14567901 0.25946052 0.59228763 1.00000000
-0.11751960 0.16077204 0.65311257 1.00000000
-0.11463453 0.25078923 0.65947081 1.00000000
-0.14311921 0.25967710 0.59856595 1.00000000
-0.14565712 0.16949390 0.59227249 1.00000000
-0.12037892 0.16066510 0.64741600 1.00000000
-0.11461897 0.24160585 0.65949309 1.00000000
-0.14017270 0.25945334 0.60450884 1.00000000
-0.14572043 0.17869287 0.59213289 1.00000000
-0.12310001 0.16080832 0.64098754 1.00000000
-0.11470955 0.23276033 0.65931766 1.00000000
-0.13742141 0.25953222 0.61070924 1.00000000
-0.14571782 0.18759785 0.59214544 1.00000000
-0.12579788 0.16061835 0.63518293 1.00000000
-0.11469327 0.22357718 0.65934131 1.00000000
-0.13448030 0.25984911 0.61706514 1.00000000
-0.14563688 0.19682449 0.59233920 1.00000000
-0.12888885 0.16073452 0.62924340 1.00000000
-0.11459042 0.21467368 0.65952653 1.00000000
-0.13135181 0.25972354 0.62269509 1.00000000
-0.14563133 0.20573009 0.59235852 1.00000000
-0.13134075 0.16074105 0.62264626 1.00000000
-0.11467615 0.20582779 0.65936023 1.00000000
-0.12900684 0.25973172 0.62907387 1.00000000
-0.14562559 0.21463590 0.59237830 1.00000000
-0.13447301 0.16051338 0.61700832 1.00000000
-0.11466189 0.19664556 0.65938010 1.00000000
-0.12578522 0.25983032 0.63528061 1.00000000
-0.14569796 0.22383506 0.59221781 1.00000000
-0.13735552 0.16081858 0.61078050 1.00000000
-0.11464857 0.18746365 0.65939820 1.00000000
-0.12308689 0.25964207 0.64108546 1.00000000
-0.14569357 0.23274111 0.59223447 1.00000000
-0.14020809 0.16076734 0.60435842 1.00000000
-0.11472577 0.17861688 0.65924774 1.00000000
-0.12037862 0.25973118 0.64748895 1.00000000
-0.14568893 0.24164737 0.59225169 1.00000000
-0.14300225 0.16073142 0.59875825 1.00000000
-0.11463652 0.16971645 0.65940763 1.00000000
-0.11742010 0.25969284 0.65337399 1.00000000
-0.14568407 0.25055384 0.59226943 1.00000000
-0.04833875 -0.16267732 0.78104893 1.00000000
-0.00785830 -0.16301225 0.86774316 1.00000000
-0.00782657 -0.10060145 0.86782712 1.00000000
-0.04842087 -0.10075085 0.78099270 1.00000000
-0.01195605 -0.16275877 0.86002415 1.00000000
-0.00777243 -0.10603041 0.86787218 1.00000000
-0.04498658 -0.10086013 0.78879044 1.00000000
-0.04838223 -0.15708487 0.78099779 1.00000000
-0.01535200 -0.16273105 0.85216788 1.00000000
-0.00782144 -0.11190813 0.86782192 1.00000000
-0.04140848 -0.10051666 0.79684779 1.00000000
-0.04842351 -0.15149151 0.78094943 1.00000000
-0.01943400 -0.16291291 0.84430568 1.00000000
-0.00787492 -0.11778724 0.86776749 1.00000000
-0.03777853 -0.10073599 0.80461889 1.00000000
-0.04846247 -0.14589726 0.78090400 1.00000000
-0.02265026 -0.16287506 0.83620518 1.00000000
-0.00781513 -0.12321411 0.86781782 1.00000000
-0.03413368 -0.10070119 0.81245622 1.00000000
-0.04838920 -0.13989684 0.78100239 1.00000000
-0.02643273 -0.16260809 0.82857402 1.00000000
-0.00787260 -0.12909453 0.86775972 1.00000000
-0.03038018 -0.10081528 0.82043865 1.00000000
-0.04836673 -0.13451470 0.78103533 1.00000000
-0.03026468 -0.16270217 0.82051637 1.00000000
-0.00780772 -0.13451933 0.86781472 1.00000000
-0.02646884 -0.10044841 0.82858673 1.00000000
-0.04840406 -0.12891971 0.78099204 1.00000000
-0.03404484 -0.16270606 0.81250755 1.00000000
-0.00786900 -0.14040116 0.86775313 1.00000000
-0.02255991 -0.10045142 0.83635250 1.00000000
-0.04843882 -0.12332390 0.78095199 1.00000000
-0.03777660 -0.16262070 0.80457115 1.00000000
-0.00779929 -0.14582378 0.86781255 1.00000000
-0.01937867 -0.10066194 0.84441487 1.00000000
-0.04847093 -0.11772730 0.78091531 1.00000000
-0.04139557 -0.16264855 0.79681367 1.00000000
-0.00786420 -0.15170708 0.86774763 1.00000000
-0.01534288 -0.10055187 0.85223024 1.00000000
-0.04840929 -0.11172971 0.78099887 1.00000000
-0.04492324 -0.16259754 0.78882037 1.00000000
-0.00778995 -0.15712741 0.86781124 1.00000000
-0.01203240 -0.10065226 0.86000536 1.00000000
-0.04839067 -0.10634811 0.78102689 1.00000000
-0.16239817 0.02391708 0.49060595 1.00000000
-0.13047122 0.02404550 0.55995363 1.00000000
-0.13047496 0.12546570 0.56001056 1.00000000
-0.16242173 0.12549037 0.49059979 1.00000000
-0.13340713 0.02370317 0.55353140 1.00000000
-0.13048216 0.11645982 0.55998692 1.00000000
-0.15951255 0.12547411 0.49712335 1.00000000
-0.16239097 0.03298243 0.49063547 1.00000000
-0.13623341 0.02395581 0.54709310 1.00000000
-0.13049522 0.10685072 0.55994845 1.00000000
-0.15656590 0.12529925 0.50338283 1.00000000
-0.16239137 0.04229307 0.49064065 1.00000000
-0.13911563 0.02393925 0.54133512 1.00000000
-0.13049977 0.09784544 0.55993137 1.00000000
-0.15385219 0.12545827 0.50955823 1.00000000
-0.16239203 0.05160389 0.49064496 1.00000000
-0.14219910 0.02384664 0.53453492 1.00000000
-0.13046464 0.08856165 0.56001190 1.00000000
-0.15061124 0.12556578 0.51599057 1.00000000
-0.16239296 0.06091489 0.49064842 1.00000000
-0.14532460 0.02382421 0.52846283 1.00000000
-0.13047038 0.07955666 0.55999188 1.00000000
-0.14772451 0.12529908 0.52201291 1.00000000
-0.16239414 0.07022605 0.49065105 1.00000000
-0.14771549 0.02404812 0.52197112 1.00000000
-0.13047970 0.06994862 0.55996267 1.00000000
-0.14531083 0.12541213 0.52856829 1.00000000
-0.16237236 0.07929435 0.49072776 1.00000000
-0.15063370 0.02367431 0.51585723 1.00000000
-0.13048249 0.06094416 0.55994992 1.00000000
-0.14219335 0.12568149 0.53461760 1.00000000
-0.16237158 0.08860638 0.49073680 1.00000000
-0.15386092 0.02389806 0.50946366 1.00000000
-0.13046070 0.05166036 0.55999749 1.00000000
-0.13911266 0.12569921 0.54140988 1.00000000
-0.16237109 0.09791859 0.49074485 1.00000000
-0.15654141 0.02386041 0.50338870 1.00000000
-0.13048704 0.04233275 0.55992655 1.00000000
-0.13623606 0.12531331 0.54715260 1.00000000
-0.16241497 0.10686720 0.49060884 1.00000000
-0.15953748 0.02371689 0.49697509 1.00000000
-0.13047018 0.03304917 0.55996205 1.00000000
-0.13343447 0.12554544 0.55352900 1.00000000
-0.16241828 0.11617873 0.49060455 1.00000000
-0.15684732 -0.19414420 0.41053704 1.00000000
-0.11370238 -0.19412067 0.50300818 1.00000000
-0.11367898 -0.09217813 0.50312779 1.00000000
-0.15684786 -0.09197534 0.41059752 1.00000000
-0.11778614 -0.19447163 0.49487052 1.00000000
-0.11369176 -0.10164391 0.50308708 1.00000000
-0.15293090 -0.09194120 0.41884163 1.00000000
-0.15685660 -0.18505195 0.41050203 1.00000000
-0.12153376 -0.19427214 0.48592070 1.00000000
-0.11372161 -0.11052125 0.50299900 1.00000000
-0.14905391 -0.09224021 0.42708147 1.00000000
-0.15683448 -0.17577129 0.41060446 1.00000000
-0.12559001 -0.19442947 0.47761430 1.00000000
-0.11373991 -0.11998547 0.50294279 1.00000000
-0.14522021 -0.09195365 0.43605423 1.00000000
-0.15681378 -0.16648843 0.41070058 1.00000000
-0.12951913 -0.19411220 0.46908921 1.00000000
-0.11370999 -0.12920324 0.50302151 1.00000000
-0.14120458 -0.09213900 0.44419731 1.00000000
-0.15687696 -0.15698902 0.41043019 1.00000000
-0.13321203 -0.19427817 0.46068707 1.00000000
-0.11372940 -0.13866672 0.50296226 1.00000000
-0.13727527 -0.09217795 0.45287262 1.00000000
-0.15685636 -0.14770580 0.41052607 1.00000000
-0.13725369 -0.19423968 0.45289020 1.00000000
-0.11369519 -0.14788520 0.50305289 1.00000000
-0.13317144 -0.09225933 0.46087749 1.00000000
-0.15686382 -0.13861477 0.41049899 1.00000000
-0.14119221 -0.19421326 0.44418417 1.00000000
-0.11365789 -0.15710439 0.50315205 1.00000000
-0.12949835 -0.09198034 0.46921117 1.00000000
-0.15684549 -0.12932872 0.41058492 1.00000000
-0.14522089 -0.19438948 0.43599283 1.00000000
-0.11367775 -0.16656721 0.50309161 1.00000000
-0.12560221 -0.09223978 0.47763196 1.00000000
-0.15682913 -0.12004068 0.41066211 1.00000000
-0.14903922 -0.19434200 0.42707963 1.00000000
-0.11363720 -0.17578722 0.50319978 1.00000000
-0.12154548 -0.09209968 0.48594046 1.00000000
-0.15687818 -0.11055396 0.41045327 1.00000000
-0.15291234 -0.19429706 0.41885736 1.00000000
-0.11374322 -0.18490078 0.50289906 1.00000000
-0.11778788 -0.09206716 0.49492031 1.00000000
-0.15686189 -0.10126554 0.41053037 1.00000000
-0.16757476 -0.17146245 0.37305708 1.00000000
-0.12652845 -0.17155856 0.46153818 1.00000000
-0.12648522 -0.10212153 0.46171472 1.00000000
-0.16754852 -0.10204139 0.37325420 1.00000000
-0.13006066 -0.17186442 0.45329077 1.00000000
-0.12649231 -0.10852935 0.46168842 1.00000000
-0.16410837 -0.10210381 0.38154355 1.00000000
-0.16757544 -0.16511415 0.37305754 1.00000000
-0.13405522 -0.17180222 0.44525544 1.00000000
-0.12650020 -0.11493680 0.46165947 1.00000000
-0.16006407 -0.10184739 0.38933554 1.00000000
-0.16753336 -0.15919600 0.37330134 1.00000000
-0.13784571 -0.17164830 0.43728160 1.00000000
-0.12650886 -0.12134386 0.46162803 1.00000000
-0.15664583 -0.10219107 0.39758677 1.00000000
-0.16753507 -0.15284550 0.37329596 1.00000000
-0.14136940 -0.17179918 0.42961982 1.00000000
-0.12647826 -0.12752741 0.46172397 1.00000000
-0.15272763 -0.10200590 0.40505865 1.00000000
-0.16753678 -0.14649499 0.37329058 1.00000000
-0.14541472 -0.17166846 0.42121795 1.00000000
-0.12648684 -0.13393435 0.46169281 1.00000000
-0.14883768 -0.10223361 0.41351675 1.00000000
-0.16753849 -0.14014448 0.37328521 1.00000000
-0.14883284 -0.17165337 0.41349712 1.00000000
-0.12649612 -0.14034089 0.46165936 1.00000000
-0.14537714 -0.10200766 0.42140654 1.00000000
-0.16754019 -0.13379397 0.37327987 1.00000000
-0.15268928 -0.17193007 0.40518617 1.00000000
-0.12646183 -0.14652593 0.46176719 1.00000000
-0.14135745 -0.10231945 0.42970334 1.00000000
-0.16754189 -0.12744345 0.37327458 1.00000000
-0.15665654 -0.17163073 0.39749475 1.00000000
-0.12654067 -0.15256332 0.46150850 1.00000000
-0.13779695 -0.10198563 0.43749681 1.00000000
-0.16754357 -0.12109293 0.37326935 1.00000000
-0.16004315 -0.17171987 0.38939521 1.00000000
-0.12655243 -0.15896818 0.46146696 1.00000000
-0.13401762 -0.10218651 0.44542402 1.00000000
-0.16754524 -0.11474242 0.37326419 1.00000000
-0.16407622 -0.17183225 0.38166792 1.00000000
-0.12656470 -0.16537258 0.46142380 1.00000000
-0.13008523 -0.10196706 0.45324508 1.00000000
-0.16754689 -0.10839190 0.37325914 1.00000000
-0.15508003 -0.00296461 0.38866883 1.00000000
-0.12225462 -0.00268883 0.45788091 1.00000000
-0.12223847 0.09952862 0.45798462 1.00000000
-0.15510577 0.09969690 0.38860595 1.00000000
-0.12551896 -0.00290445 0.45150001 1.00000000
-0.12224069 0.09036143 0.45797280 1.00000000
-0.15192752 0.09946114 0.39462836 1.00000000
-0.15508087 0.00654466 0.38867066 1.00000000
-0.12829473 -0.00289148 0.44546180 1.00000000
-0.12224280 0.08119451 0.45796135 1.00000000
-0.14918089 0.09984414 0.40128455 1.00000000
-0.15508243 0.01585972 0.38866866 1.00000000
-0.13130993 -0.00287808 0.43915866 1.00000000
-0.12225845 0.07144460 0.45790587 1.00000000
-0.14634802 0.09999287 0.40773571 1.00000000
-0.15508423 0.02517487 0.38866552 1.00000000
-0.13419902 -0.00286464 0.43289600 1.00000000
-0.12225868 0.06227856 0.45790053 1.00000000
-0.14306819 0.09984269 0.41362827 1.00000000
-0.15508626 0.03449009 0.38866126 1.00000000
-0.13729785 -0.00285078 0.42638769 1.00000000
-0.12225870 0.05311273 0.45789585 1.00000000
-0.14024255 0.09972534 0.42004381 1.00000000
-0.15508851 0.04380535 0.38865595 1.00000000
-0.14025752 -0.00283690 0.41993037 1.00000000
-0.12224261 0.04371916 0.45794299 1.00000000
-0.13730539 0.09978013 0.42641363 1.00000000
-0.15509097 0.05312064 0.38864966 1.00000000
-0.14308002 -0.00282300 0.41352452 1.00000000
-0.12224542 0.03455336 0.45792928 1.00000000
-0.13420340 0.09959505 0.43293366 1.00000000
-0.15509361 0.06243593 0.38864244 1.00000000
-0.14635158 -0.00281108 0.40766367 1.00000000
-0.12226241 0.02503454 0.45786972 1.00000000
-0.13133094 0.09958738 0.43913760 1.00000000
-0.15509643 0.07175122 0.38863438 1.00000000
-0.14920957 -0.00279680 0.40110079 1.00000000
-0.12225387 0.01564080 0.45789256 1.00000000
-0.12828418 0.09991879 0.44555076 1.00000000
-0.15509941 0.08106648 0.38862556 1.00000000
-0.15192086 -0.00278251 0.39460003 1.00000000
-0.12225434 0.00647588 0.45788641 1.00000000
-0.12551681 0.09985096 0.45155967 1.00000000
-0.15510253 0.09038171 0.38861605 1.00000000
-0.03476474 0.11720326 0.63101281 1.00000000
0.00864406 0.11720095 0.72427883 1.00000000
0.00873841 0.18336806 0.72445753 1.00000000
-0.03475056 0.18356849 0.63107429 1.00000000
0.00428730 0.11731577 0.71542997 1.00000000
0.00867713 0.17744098 0.72436386 1.00000000
-0.03123604 0.18365247 0.63933517 1.00000000
-0.03467025 0.12320318 0.63119298 1.00000000
0.00067864 0.11729249 0.70705933 1.00000000
0.00861813 0.17151287 0.72427352 1.00000000
-0.02705595 0.18356626 0.64771093 1.00000000
-0.03474796 0.12926349 0.63105062 1.00000000
-0.00353065 0.11727059 0.69866083 1.00000000
0.00870983 0.16519792 0.72440454 1.00000000
-0.02296308 0.18373753 0.65618408 1.00000000
-0.03473003 0.13500353 0.63108722 1.00000000
-0.00763836 0.11717819 0.69006770 1.00000000
0.00865271 0.15926923 0.72431697 1.00000000
-0.01926558 0.18356141 0.66495943 1.00000000
-0.03472803 0.14132374 0.63109431 1.00000000
-0.01092942 0.11718805 0.68168945 1.00000000
0.00868304 0.15354416 0.72435811 1.00000000
-0.01528662 0.18349514 0.67330537 1.00000000
-0.03470819 0.14706370 0.63113448 1.00000000
-0.01542562 0.11725926 0.67303447 1.00000000
0.00876723 0.14723246 0.72447802 1.00000000
-0.01091353 0.18338175 0.68175296 1.00000000
-0.03470531 0.15338398 0.63114322 1.00000000
-0.01922064 0.11721981 0.66500007 1.00000000
0.00871267 0.14130310 0.72439426 1.00000000
-0.00759431 0.18358277 0.69017670 1.00000000
-0.03479622 0.15944647 0.63097601 1.00000000
-0.02294366 0.11686397 0.65618185 1.00000000
0.00866117 0.13537278 0.72431496 1.00000000
-0.00332892 0.18343925 0.69901684 1.00000000
-0.03468015 0.16544419 0.63119667 1.00000000
-0.02714928 0.11732734 0.64750763 1.00000000
0.00873879 0.12906355 0.72442524 1.00000000
0.00079454 0.18334058 0.70727662 1.00000000
-0.03477459 0.17150750 0.63102291 1.00000000
-0.03126087 0.11715851 0.63925418 1.00000000
0.00868967 0.12313270 0.72434947 1.00000000
0.00442923 0.18345629 0.71568310 1.00000000
-0.03465292 0.17750437 0.63125402 1.00000000
