-0.16696563 -0.21050676 3.61103964 1.00000000
-0.04339980 0.16123756 3.81499779 1.00000000
-0.18013356 -0.20914261 3.58945329 1.00000000
0.07332222 -0.24840285 3.88343539 1.00000000
0.03742037 -0.12663297 3.87029766 1.00000000
-0.07087455 0.14513390 3.80838477 1.00000000
0.05784571 -0.22103121 3.87417403 1.00000000
-0.40584638 -0.21711056 3.75567975 1.00000000
0.09997167 -0.02871577 3.92776347 1.00000000
-0.10089854 -0.01404917 3.80654314 1.00000000
-0.07834263 0.02714452 3.80539381 1.00000000
-0.02810310 -0.13046235 3.78077659 1.00000000
0.07055332 -0.14982337 3.87241890 1.00000000
-0.21372779 -0.10327978 3.59855835 1.00000000
-0.04336544 0.01417397 3.81095212 1.00000000
-0.06235116 -0.21179311 3.74738798 1.00000000
-0.02078965 -0.06382093 3.80771083 1.00000000
0.06924983 -0.28411122 3.80077084 1.00000000
0.00926643 -0.22439554 3.80750830 1.00000000
0.21525200 0.59855272 3.95533411 1.00000000
-0.32641039 0.04642030 3.77968555 1.00000000
-0.06896625 -0.23865369 3.70560074 1.00000000
0.14773862 0.14908048 4.03249697 1.00000000
-0.19025342 -0.22492067 3.55816203 1.00000000
-0.17829625 -0.21991267 3.55305679 1.00000000
-0.04564147 0.02045303 3.79171342 1.00000000
-0.34682213 -0.12543971 3.70557540 1.00000000
0.24330401 0.53800872 4.03263596 1.00000000
-0.13607666 -0.20478239 3.67486210 1.00000000
0.13138750 -0.14397979 3.94013373 1.00000000
-0.02582904 0.10813872 3.81319760 1.00000000
0.09686167 0.40541377 4.01063223 1.00000000
-0.07092354 0.28980463 3.81194998 1.00000000
0.10254242 -0.03646037 3.92729234 1.00000000
-0.35260528 0.58559190 3.61608444 1.00000000
-0.20843627 0.02331952 3.63005008 1.00000000
-0.05327003 0.04687552 3.80235377 1.00000000
-0.16805443 0.05054349 3.63454726 1.00000000
-0.48997907 0.57867027 3.75752549 1.00000000
-0.40464489 -0.20777396 3.76747978 1.00000000
-0.36296122 -0.11102339 3.72110089 1.00000000
-0.07909701 -0.12673683 3.72321825 1.00000000
0.07632231 -0.22429294 3.90630549 1.00000000
-0.16793946 -0.23717480 3.58120832 1.00000000
-0.04595663 0.33522996 3.82094614 1.00000000
0.02194381 -0.04838261 3.83578089 1.00000000
-0.41864247 -0.24342046 3.73763781 1.00000000
-0.41281856 -0.22936374 3.75171253 1.00000000
-0.10585656 -0.02151935 3.80476707 1.00000000
0.02199607 -0.05610954 3.84494469 1.00000000
-0.15871183 0.39403927 3.64068239 1.00000000
-0.26856577 -0.11856417 3.63601607 1.00000000
-0.15723290 0.42653252 3.66245682 1.00000000
-0.28824340 -0.46429521 3.67391160 1.00000000
-0.23598630 0.02369538 3.64994963 1.00000000
0.18631365 0.44144612 4.06319445 1.00000000
-0.35422137 0.60969949 3.60826308 1.00000000
-0.05510258 -0.02532786 3.75659308 1.00000000
-0.35118191 -0.43905844 3.62515369 1.00000000
-0.20795279 0.03050507 3.62163425 1.00000000
-0.06324668 0.16106063 3.80144611 1.00000000
-0.19450185 0.16306791 3.63756809 1.00000000
-0.03339893 0.18890713 3.81938335 1.00000000
-0.03339360 0.18132960 3.81867844 1.00000000
-0.03090566 0.34018551 3.82411196 1.00000000
-0.05333838 0.34335379 3.81070783 1.00000000
-0.32692385 0.02252212 3.75699373 1.00000000
-0.02342111 0.34223971 3.83555425 1.00000000
-0.17379031 0.29542149 3.65541404 1.00000000
-0.16195913 0.41673119 3.66035973 1.00000000
-0.01088437 0.17474087 3.85149239 1.00000000
0.06060320 -0.18866300 3.88763354 1.00000000
-0.36030314 -0.14319324 3.71895202 1.00000000
-0.14886580 -0.11931779 3.63306373 1.00000000
-0.32876522 0.03765897 3.77816589 1.00000000
-0.36635282 -0.20581859 3.73081669 1.00000000
-0.22912922 0.16437081 3.65565895 1.00000000
-0.45139316 0.48803683 3.80703008 1.00000000
-0.32651283 0.05900847 3.78087766 1.00000000
0.20953377 0.47608538 4.04659683 1.00000000
-0.27638222 -0.20483052 3.64447151 1.00000000
-0.05603424 0.38101688 3.82333558 1.00000000
-0.43317721 -0.30363621 3.75709602 1.00000000
-0.35438307 -0.01200712 3.73386000 1.00000000
-0.49376587 0.57027969 3.78649725 1.00000000
-0.17974429 0.02778064 3.62922741 1.00000000
-0.41410350 -0.33230656 3.74111613 1.00000000
-0.13809016 -0.11443445 3.66400764 1.00000000
-0.02089517 0.32440893 3.83432396 1.00000000
-0.18746376 -0.23258791 3.54947282 1.00000000
0.06285815 -0.17124583 3.86959169 1.00000000
-0.18722298 0.43292406 3.63670843 1.00000000
-0.18038074 0.17267010 3.64229734 1.00000000
-0.43632567 -0.11714010 3.80602873 1.00000000
-0.19169726 0.16993338 3.62978268 1.00000000
-0.28215530 -0.04869300 3.65713479 1.00000000
-0.06232544 -0.03007590 3.74518059 1.00000000
-0.14489601 -0.11159833 3.65330846 1.00000000
-0.43305222 -0.31236204 3.75614793 1.00000000
-0.41402361 -0.33973395 3.74041154 1.00000000
-0.15687885 0.32754833 3.65338437 1.00000000
-0.05837817 0.13617939 3.80984908 1.00000000
-0.41026314 -0.14420171 3.75080477 1.00000000
-0.03089179 0.31735402 3.82199213 1.00000000
-0.42443057 -0.01548142 3.78918558 1.00000000
-0.14009540 -0.02217863 3.65343390 1.00000000
-0.18717014 0.42075007 3.63561351 1.00000000
-0.38644589 0.61276525 3.64385675 1.00000000
-0.18030689 0.15571392 3.64076671 1.00000000
-0.34860884 -0.02318595 3.72467291 1.00000000
