0.18180328 -1.26033643 6.53415427 1.00000000
0.90328121 -1.27166093 6.58330694 1.00000000
0.89859863 -0.74744496 6.53975332 1.00000000
0.18168987 -0.74006892 6.49233262 1.00000000
0.83808508 -1.27247183 6.58683138 1.00000000
0.89458911 -0.78952992 6.50258863 1.00000000
0.24633461 -0.73965575 6.48966299 1.00000000
0.18152676 -1.19399121 6.45083415 1.00000000
0.77281867 -1.27327458 6.59032042 1.00000000
0.90249941 -0.84946646 6.57594702 1.00000000
0.31092752 -0.73923599 6.48695097 1.00000000
0.18167370 -1.15582590 6.49397363 1.00000000
0.70010700 -1.25363440 6.50502383 1.00000000
0.90477376 -0.89792129 6.59704659 1.00000000
0.37546747 -0.73881009 6.48419937 1.00000000
0.18159977 -1.10683601 6.47120979 1.00000000
0.63556753 -1.25449116 6.50874774 1.00000000
0.90068208 -0.93950673 6.55912110 1.00000000
0.43995346 -0.73837847 6.48141088 1.00000000
0.18174632 -1.06791966 6.51421960 1.00000000
0.57095608 -1.25534393 6.51245427 1.00000000
0.90295179 -0.98812919 6.58017786 1.00000000
0.50438456 -0.73794154 6.47858817 1.00000000
0.18167221 -1.01909617 6.49140697 1.00000000
0.50627302 -1.25619202 6.51614045 1.00000000
0.89885708 -1.02907924 6.54222376 1.00000000
0.56875996 -0.73749969 6.47573380 1.00000000
0.18181834 -0.97943155 6.53427671 1.00000000
0.44151879 -1.25703471 6.51980322 1.00000000
0.90112199 -1.07786744 6.56323632 1.00000000
0.63307893 -0.73705332 6.47285029 1.00000000
0.18174406 -0.93077748 6.51141778 1.00000000
0.37669395 -1.25787128 6.52343938 1.00000000
0.89702555 -1.11818335 6.52526567 1.00000000
0.69734083 -0.73660280 6.46994006 1.00000000
0.18188973 -0.89036800 6.55413790 1.00000000
0.31179919 -1.25870096 6.52704559 1.00000000
0.89928554 -1.16713541 6.54623278 1.00000000
0.76880912 -0.74825748 6.54500312 1.00000000
0.18181529 -0.84188630 6.53123528 1.00000000
0.24683532 -1.25952295 6.53061841 1.00000000
0.89518876 -1.20681918 6.50825842 1.00000000
0.83373101 -0.74785454 6.54239965 1.00000000
0.18154760 -0.78108655 6.45063166 1.00000000
-1.73005465 1.78093579 6.49884942 1.00000000
-1.01450357 1.78109486 6.49982060 1.00000000
-1.01076438 2.23506444 6.47834112 1.00000000
-1.72390598 2.23470015 6.47685307 1.00000000
-1.07946495 1.78135161 6.50099544 1.00000000
-1.02334376 2.21471647 6.55140490 1.00000000
-1.65914345 2.23445040 6.47598591 1.00000000
-1.73909545 1.82913278 6.53148986 1.00000000
-1.14443864 1.78159692 6.50211700 1.00000000
-1.01812850 2.16521702 6.52108274 1.00000000
-1.59438470 2.23418659 6.47506892 1.00000000
-1.74813852 1.87772322 6.56413866 1.00000000
-1.20942291 1.78183058 6.50318427 1.00000000
-1.02145343 2.12592311 6.54037655 1.00000000
-1.52874130 2.23695716 6.48490434 1.00000000
-1.72633103 1.90045866 6.48546384 1.00000000
-1.27441603 1.78205238 6.50419631 1.00000000
-1.01620133 2.07681346 6.50984054 1.00000000
-1.46398082 2.23676996 6.48425900 1.00000000
-1.73522826 1.94903885 6.51758646 1.00000000
-1.33941619 1.78226211 6.50515215 1.00000000
-1.01953469 2.03736351 6.52918327 1.00000000
-1.39922099 2.23656827 6.48356229 1.00000000
-1.72965928 1.98847575 6.49750925 1.00000000
-1.40442161 1.78245959 6.50605091 1.00000000
-1.01424533 1.98864942 6.49843100 1.00000000
-1.33446343 2.23635227 6.48281485 1.00000000
-1.73848755 2.03746701 6.52938323 1.00000000
-1.46943044 1.78264462 6.50689168 1.00000000
-1.01758700 1.94904312 6.51782199 1.00000000
-1.26970972 2.23612214 6.48201735 1.00000000
-1.73293426 2.07674397 6.50936257 1.00000000
-1.53444081 1.78281703 6.50767363 1.00000000
-1.01225996 1.90073044 6.48685104 1.00000000
-1.20496143 2.23587809 6.48117049 1.00000000
-1.74169453 2.12613983 6.54099135 1.00000000
-1.60003217 1.78047613 6.49675029 1.00000000
-1.02532183 1.87734941 6.56271598 1.00000000
-1.14022010 2.23562031 6.48027500 1.00000000
-1.73615712 2.16525720 6.52102792 1.00000000
-1.66504099 1.78071208 6.49782837 1.00000000
-1.01991108 1.82903141 6.53125880 1.00000000
-1.07548725 2.23534902 6.47933162 1.00000000
-1.74485033 2.21505134 6.55241488 1.00000000
-0.45239550 -0.92101062 6.10218451 1.00000000
0.08021556 -0.92470457 6.12130931 1.00000000
0.08079136 -0.22580888 6.07709738 1.00000000
-0.44820336 -0.22423203 6.05866879 1.00000000
0.03182150 -0.92616348 6.12888174 1.00000000
0.08084527 -0.29250271 6.07234930 1.00000000
-0.39994995 -0.22377108 6.05321324 1.00000000
-0.44687230 -0.84638431 6.04419041 1.00000000
-0.01519262 -0.91465163 6.06915944 1.00000000
0.08083342 -0.35326611 6.07304578 1.00000000
-0.35054502 -0.22556997 6.07442338 1.00000000
-0.44683895 -0.78590609 6.04388730 1.00000000
-0.06331457 -0.91613958 6.07688314 1.00000000
0.08082148 -0.41404381 6.07374934 1.00000000
-0.30225930 -0.22511031 6.06898325 1.00000000
-0.45277293 -0.73231612 6.10629958 1.00000000
-0.11154865 -0.91761007 6.08451617 1.00000000
0.08080945 -0.47483603 6.07446010 1.00000000
-0.25404767 -0.22464067 6.06342524 1.00000000
-0.44735580 -0.65953110 6.04941889 1.00000000
-0.15989251 -0.91906189 6.09205226 1.00000000
0.08086497 -0.54130060 6.06958123 1.00000000
-0.20591305 -0.22416145 6.05775411 1.00000000
-0.44731815 -0.59900646 6.04907065 1.00000000
-0.20834360 -0.92049381 6.09948500 1.00000000
0.08085316 -0.60206541 6.07027412 1.00000000
-0.15785821 -0.22367304 6.05197454 1.00000000
-0.44728051 -0.53848871 6.04872244 1.00000000
-0.25689918 -0.92190457 6.10680783 1.00000000
0.08084126 -0.66284480 6.07097452 1.00000000
-0.10988580 -0.22317584 6.04609120 1.00000000
-0.44781435 -0.47233945 6.05438537 1.00000000
-0.30555629 -0.92329288 6.11401410 1.00000000
0.08019255 -0.73522799 6.12407707 1.00000000
-0.06199830 -0.22267025 6.04010868 1.00000000
-0.44777263 -0.41177383 6.05399444 1.00000000
-0.35431179 -0.92465743 6.12109702 1.00000000
0.08088636 -0.78986293 6.06667457 1.00000000
-0.01419805 -0.22215664 6.03403153 1.00000000
-0.44773097 -0.35121595 6.05360405 1.00000000
-0.40367181 -0.91964596 6.09510075 1.00000000
0.08087457 -0.85062791 6.06736580 1.00000000
0.03276317 -0.22630657 6.08298621 1.00000000
-0.44768936 -0.29066581 6.05321423 1.00000000
-1.69715420 1.93322679 5.87665150 1.00000000
-1.01695116 1.92991426 5.86416286 1.00000000
-1.02327628 2.44823080 5.89768954 1.00000000
-1.70708243 2.45251117 5.90999302 1.00000000
-1.08057000 1.93250033 5.87404582 1.00000000
-1.01742443 2.39426120 5.86688683 1.00000000
-1.64318472 2.45037559 5.90378554 1.00000000
-1.69454025 1.97729178 5.86794593 1.00000000
-1.13933772 1.93246077 5.87387767 1.00000000
-1.01894819 2.35055899 5.87487830 1.00000000
-1.58282549 2.45283902 5.91097902 1.00000000
-1.69196202 2.02125896 5.85935950 1.00000000
-1.20408317 1.93215322 5.87268189 1.00000000
-1.02049088 2.30676874 5.88296927 1.00000000
-1.51890224 2.45052499 5.90425206 1.00000000
-1.68941878 2.06513032 5.85088981 1.00000000
-1.26284783 1.93212840 5.87257014 1.00000000
-1.02205284 2.26288878 5.89116155 1.00000000
-1.45857109 2.45322153 5.91212418 1.00000000
-1.70066401 2.12555647 5.88844186 1.00000000
-1.32758730 1.93185492 5.87150470 1.00000000
-1.02363443 2.21891739 5.89945701 1.00000000
-1.39464312 2.45073126 5.90488417 1.00000000
-1.71050548 2.17892397 5.92130637 1.00000000
-1.38635346 1.93184539 5.87145148 1.00000000
-1.02523601 2.17485282 5.90785755 1.00000000
-1.33553575 2.45070921 5.90483465 1.00000000
-1.70784937 2.22295354 5.91246011 1.00000000
-1.45014093 1.93393525 5.87943332 1.00000000
-1.01919135 2.12188603 5.87604135 1.00000000
-1.27039656 2.45099313 5.90567820 1.00000000
-1.70522886 2.26688753 5.90373260 1.00000000
-1.50986742 1.93161319 5.87052719 1.00000000
-1.01228696 2.06190352 5.83970015 1.00000000
-1.21129325 2.45098712 5.90567540 1.00000000
-1.70264324 2.31072785 5.89512146 1.00000000
-1.57364825 1.93355596 5.87794656 1.00000000
-1.01382196 2.01800091 5.84775069 1.00000000
-1.14615203 2.45130923 5.90663017 1.00000000
-1.70009180 2.35447636 5.88662438 1.00000000
-1.63340285 1.93143311 5.86980233 1.00000000
-1.01537657 1.97400509 5.85590429 1.00000000
-1.08704909 2.45131875 5.90667259 1.00000000
-1.69757388 2.39813487 5.87823912 1.00000000
-0.49982679 1.79086062 5.73943623 1.00000000
0.20265712 1.79326832 5.74952076 1.00000000
0.20279292 2.26510828 5.76464375 1.00000000
-0.50164842 2.26256759 5.75654211 1.00000000
0.13896510 1.79268877 5.74712452 1.00000000
0.20258385 2.21363056 5.73660175 1.00000000
-0.43803109 2.26307417 5.75813799 1.00000000
-0.50319877 1.84115823 5.77051005 1.00000000
0.07532225 1.79212650 5.74479912 1.00000000
0.20266015 2.17761094 5.74722229 1.00000000
-0.37438714 2.26360533 5.75981043 1.00000000
-0.49780454 1.87075509 5.72087957 1.00000000
0.01172630 1.79158200 5.74254654 1.00000000
0.20270711 2.13418348 5.75390840 1.00000000
-0.31071404 2.26416057 5.76155789 1.00000000
-0.50113390 1.92125369 5.75156125 1.00000000
-0.05518197 1.79443257 5.75422079 1.00000000
0.20249601 2.08328743 5.72558667 1.00000000
-0.24700931 2.26473941 5.76337883 1.00000000
-0.50446625 1.97218923 5.78227066 1.00000000
-0.11882446 1.79386494 5.75187363 1.00000000
0.20283309 2.05435767 5.77158701 1.00000000
-0.18327056 2.26534133 5.76527169 1.00000000
-0.49911783 2.00094324 5.73306130 1.00000000
-0.18242205 1.79331563 5.74960157 1.00000000
0.20261962 2.00364387 5.74294186 1.00000000
-0.11949545 2.26596583 5.76723489 1.00000000
-0.50240844 2.05206916 5.76338672 1.00000000
-0.24597724 1.79278513 5.74740659 1.00000000
0.20296187 1.97414039 5.78964817 1.00000000
-0.05568170 2.26661240 5.76926684 1.00000000
-0.49714894 2.08024141 5.71499535 1.00000000
-0.30949261 1.79227391 5.74529063 1.00000000
0.20274597 1.92361335 5.76067257 1.00000000
0.01136623 2.26319057 5.75861584 1.00000000
-0.50039881 2.13155273 5.74494596 1.00000000
-0.37297082 1.79178243 5.74325564 1.00000000
0.20253041 1.87350286 5.73173965 1.00000000
0.07513401 2.26380848 5.76055871 1.00000000
-0.49964238 2.17483812 5.73801432 1.00000000
-0.43641460 1.79131118 5.74130354 1.00000000
0.20287515 1.84318278 5.77878950 1.00000000
0.13894221 2.26444789 5.76256855 1.00000000
-0.49843579 2.21065400 5.72693383 1.00000000
-1.97350935 1.25302711 5.66951096 1.00000000
-1.44035016 1.25267264 5.66745393 1.00000000
-1.44325829 1.97065162 5.67864464 1.00000000
-1.97739079 1.97125382 5.68067796 1.00000000
-1.48562588 1.25292359 5.66903790 1.00000000
-1.42988686 1.89123886 5.62855879 1.00000000
-1.93079793 1.97245643 5.68504467 1.00000000
-1.96094018 1.31280629 5.63424233 1.00000000
-1.53663795 1.25301344 5.66959169 1.00000000
-1.43840028 1.83409314 5.66040207 1.00000000
-1.88102780 1.97086524 5.67929729 1.00000000
-1.98064951 1.38834662 5.68960934 1.00000000
-1.58764962 1.25309796 5.67011142 1.00000000
-1.43654055 1.76962635 5.65341333 1.00000000
-1.82992690 1.97072892 5.67881774 1.00000000
-1.96815455 1.44760985 5.65454892 1.00000000
-1.63291805 1.25331416 5.67147355 1.00000000
-1.44531884 1.71175277 5.68624773 1.00000000
-1.78344051 1.97210075 5.68379772 1.00000000
-1.97080416 1.51180856 5.66201237 1.00000000
-1.68392286 1.25338269 5.67189126 1.00000000
-1.44346486 1.64716903 5.67928045 1.00000000
-1.73352906 1.97025365 5.67712307 1.00000000
-1.97341375 1.57614003 5.66936350 1.00000000
-1.72991188 1.25236534 5.66538091 1.00000000
-1.44030853 1.57569784 5.66743531 1.00000000
-1.68709483 1.97173149 5.68248740 1.00000000
-1.97771097 1.64768920 5.68145578 1.00000000
-1.78016795 1.25362599 5.67340672 1.00000000
-1.43839135 1.51141693 5.66023161 1.00000000
-1.63601333 1.97162334 5.68210990 1.00000000
-1.98023057 1.71232713 5.68855437 1.00000000
-1.82621788 1.25268083 5.66735747 1.00000000
-1.43644610 1.44726706 5.65292289 1.00000000
-1.59072587 1.97130006 5.68095193 1.00000000
-1.96825885 1.77004199 5.65496248 1.00000000
-1.87724497 1.25276928 5.66790239 1.00000000
-1.44558908 1.38786825 5.68712171 1.00000000
-1.53963889 1.97116773 5.68048684 1.00000000
-1.97078780 1.83456043 5.66208729 1.00000000
-1.92733330 1.25385667 5.67482196 1.00000000
-1.43115759 1.31257698 5.63306964 1.00000000
-1.48855178 1.97102719 5.67999204 1.00000000
-1.95919132 1.89154079 5.62954866 1.00000000
-0.77710783 -1.59570097 5.55811629 1.00000000
-0.26039460 -1.59624280 5.55978816 1.00000000
-0.26144525 -0.90908302 5.57522962 1.00000000
-0.77981400 -0.90913438 5.57550622 1.00000000
-0.30482591 -1.59787911 5.56481817 1.00000000
-0.26076865 -0.96887464 5.56566037 1.00000000
-0.72962671 -0.90896310 5.57467894 1.00000000
-0.77894479 -1.53764039 5.56969172 1.00000000
-0.35488525 -1.59820467 5.56581845 1.00000000
-0.26356892 -1.04244488 5.60495092 1.00000000
-0.68495367 -0.90820024 5.57100455 1.00000000
-0.78075464 -1.47928520 5.58109694 1.00000000
-0.39912361 -1.58808986 5.53472118 1.00000000
-0.26288982 -1.10233496 5.59534635 1.00000000
-0.63480369 -0.90800674 5.57007031 1.00000000
-0.77355450 -1.40129452 5.53589730 1.00000000
-0.44954406 -1.60008697 5.57160406 1.00000000
-0.26220276 -1.16199567 5.58563009 1.00000000
-0.59020266 -0.90720869 5.56622648 1.00000000
-0.77535779 -1.34303791 5.54726134 1.00000000
-0.49338068 -1.59011663 5.54095128 1.00000000
-0.26509431 -1.23737875 5.62620189 1.00000000
-0.54009691 -0.90699496 5.56519485 1.00000000
-0.77713460 -1.28449764 5.55845909 1.00000000
-0.53785717 -1.59171120 5.54585314 1.00000000
-0.26037784 -1.28487998 5.55985733 1.00000000
-0.49557680 -0.90616451 5.56119496 1.00000000
-0.78878683 -1.23881348 5.63170330 1.00000000
-0.58780795 -1.59206776 5.54694875 1.00000000
-0.25966542 -1.34375252 5.54978536 1.00000000
-0.45088110 -0.91112731 5.58508004 1.00000000
-0.78165127 -1.16231250 5.58690893 1.00000000
-0.63238631 -1.59360984 5.55168916 1.00000000
-0.25894548 -1.40238293 5.53960804 1.00000000
-0.40109039 -0.90507238 5.55593258 1.00000000
-0.78334221 -1.10286357 5.59756761 1.00000000
-0.68238967 -1.59393281 5.55268153 1.00000000
-0.26184843 -1.47905407 5.58033893 1.00000000
-0.35609456 -0.91012994 5.58027411 1.00000000
-0.78500739 -1.04315398 5.60806452 1.00000000
-0.72705982 -1.59541607 5.55724103 1.00000000
-0.26112521 -1.53777253 5.57011545 1.00000000
-0.30591889 -0.90993655 5.57934048 1.00000000
-0.77815290 -0.96873278 5.56503493 1.00000000
0.36662181 -1.82056624 5.36598948 1.00000000
1.03980017 -1.80751467 5.33127649 1.00000000
1.03654501 -1.44540298 5.31041275 1.00000000
0.36558320 -1.45383165 5.33735546 1.00000000
0.97915103 -1.80407582 5.32212334 1.00000000
1.03854430 -1.48035173 5.32320408 1.00000000
0.42650949 -1.44650247 5.31392338 1.00000000
0.36603366 -1.78345605 5.34998611 1.00000000
0.92093160 -1.81427474 5.34926282 1.00000000
1.03987895 -1.51973101 5.33174495 1.00000000
0.48614025 -1.44917242 5.32246020 1.00000000
0.36718616 -1.76073015 5.38122676 1.00000000
0.85224224 -1.79553166 5.29938182 1.00000000
1.04189573 -1.55498770 5.34464783 1.00000000
0.54638765 -1.44179430 5.29887113 1.00000000
0.36659585 -1.72369939 5.36516503 1.00000000
0.79364999 -1.80564564 5.32629573 1.00000000
1.03784662 -1.58035306 5.31875419 1.00000000
0.60603843 -1.44444410 5.30734369 1.00000000
0.36601075 -1.68689541 5.34924474 1.00000000
0.73345078 -1.80220728 5.31714386 1.00000000
1.03985381 -1.61566592 5.33159594 1.00000000
0.67189734 -1.44839816 5.31998624 1.00000000
0.36715796 -1.66359303 5.38034131 1.00000000
0.67409706 -1.81237447 5.34419894 1.00000000
1.04187040 -1.65114101 5.34449768 1.00000000
0.73131365 -1.44094419 5.29615446 1.00000000
0.36657083 -1.62687010 5.36436632 1.00000000
0.60786961 -1.80720453 5.33043899 1.00000000
1.03782100 -1.67606479 5.31860209 1.00000000
0.79121843 -1.44360349 5.30465746 1.00000000
0.36598906 -1.59037190 5.34853664 1.00000000
0.54792861 -1.80376724 5.32129002 1.00000000
1.03982752 -1.71159386 5.33143961 1.00000000
0.84995175 -1.43614543 5.28081215 1.00000000
0.36713040 -1.56649242 5.37947303 1.00000000
0.48763059 -1.81390045 5.34825452 1.00000000
1.04184256 -1.74728409 5.34433147 1.00000000
0.91779657 -1.45026296 5.32595033 1.00000000
0.36654672 -1.53007665 5.36359207 1.00000000
0.42769548 -1.81043638 5.33903441 1.00000000
1.03779571 -1.77177285 5.31845209 1.00000000
0.97620362 -1.44272878 5.30186216 1.00000000
0.36615712 -1.48982802 5.35297168 1.00000000
1.74751296 1.56948604 5.29947317 1.00000000
2.48050864 1.57421273 5.32082176 1.00000000
2.48132989 2.15515950 5.32286685 1.00000000
1.74887183 2.14914887 5.30428707 1.00000000
2.41300580 1.57273398 5.31419263 1.00000000
2.47067719 2.09605416 5.29702567 1.00000000
1.81514339 2.15093379 5.30976692 1.00000000
1.74847868 1.62361922 5.30288299 1.00000000
2.34983719 1.57518854 5.32514258 1.00000000
2.46950362 2.04186373 5.29417439 1.00000000
1.88156779 2.15274754 5.31533479 1.00000000
1.74124136 1.66781839 5.27734304 1.00000000
2.28244789 1.57371443 5.31853440 1.00000000
2.47904481 1.99848074 5.31731057 1.00000000
1.94597886 2.14963325 5.30581918 1.00000000
1.74221228 1.72180860 5.28077125 1.00000000
2.21523541 1.57225564 5.31199448 1.00000000
2.47787743 1.94415429 5.31447438 1.00000000
2.01250277 2.15146133 5.31143108 1.00000000
1.74317727 1.77585825 5.28417855 1.00000000
2.14180135 1.57033257 5.30337733 1.00000000
2.47670513 1.88987814 5.31162625 1.00000000
2.07659930 2.14830528 5.30178736 1.00000000
1.74413629 1.82996671 5.28756477 1.00000000
2.07497612 1.56891073 5.29700200 1.00000000
2.47552802 1.83565271 5.30876645 1.00000000
2.14322305 2.15014698 5.30744111 1.00000000
1.74508930 1.88413333 5.29092979 1.00000000
2.01128956 1.57131293 5.30771897 1.00000000
2.47434622 1.78147841 5.30589526 1.00000000
2.21635910 2.15264648 5.31510946 1.00000000
1.74603627 1.93835747 5.29427346 1.00000000
1.94457567 1.56989941 5.30138103 1.00000000
2.47315986 1.72735563 5.30301299 1.00000000
2.28333470 2.15454312 5.32093083 1.00000000
1.74697717 1.99263848 5.29759569 1.00000000
1.88054839 1.57227537 5.31198039 1.00000000
2.47196907 1.67328478 5.30011996 1.00000000
2.35047151 2.15646288 5.32682278 1.00000000
1.73991853 2.03529755 5.27268612 1.00000000
1.81394575 1.57087075 5.30568241 1.00000000
2.48169465 1.62842444 5.32370311 1.00000000
2.41408951 2.15323076 5.31694725 1.00000000
1.74086539 2.08944123 5.27602946 1.00000000
-0.78421803 0.09503339 4.75351503 1.00000000
-0.32810231 0.09514384 4.75058572 1.00000000
-0.32721376 0.77767143 4.74183799 1.00000000
-0.78235190 0.77787665 4.74381574 1.00000000
-0.36609512 0.09513309 4.75086589 1.00000000
-0.32849121 0.71817219 4.75514745 1.00000000
-0.73956288 0.77797920 4.74495068 1.00000000
-0.78853220 0.15775188 4.77678631 1.00000000
-0.40896982 0.09520178 4.74929157 1.00000000
-0.32656173 0.65336302 4.73492164 1.00000000
-0.69676298 0.77808631 4.74613493 1.00000000
-0.78563343 0.21902656 4.76120336 1.00000000
-0.45182418 0.09526823 4.74776987 1.00000000
-0.32785124 0.59362706 4.74835699 1.00000000
-0.65493644 0.77720953 4.73665202 1.00000000
-0.78985647 0.28241345 4.78398408 1.00000000
-0.49382540 0.09470776 4.76091233 1.00000000
-0.32588672 0.52938179 4.72776535 1.00000000
-0.61599912 0.77818847 4.74728598 1.00000000
-0.78090372 0.34555544 4.73579148 1.00000000
-0.53263728 0.09531933 4.74663605 1.00000000
-0.32718832 0.46940582 4.74132691 1.00000000
-0.57426445 0.77727926 4.73745197 1.00000000
-0.77820583 0.40578090 4.72128996 1.00000000
-0.57545108 0.09538016 4.74524577 1.00000000
-0.32518793 0.40574520 4.72036055 1.00000000
-0.53148165 0.77738058 4.73857381 1.00000000
-0.78231009 0.46949072 4.74343115 1.00000000
-0.61766065 0.09484590 4.75777458 1.00000000
-0.32650163 0.34552604 4.73404851 1.00000000
-0.49235332 0.77842051 4.74986788 1.00000000
-0.77964148 0.52945873 4.72908726 1.00000000
-0.65622461 0.09542379 4.74428662 1.00000000
-0.33084849 0.28242239 4.77944801 1.00000000
-0.45077750 0.77746387 4.73952068 1.00000000
-0.78366226 0.59378272 4.75077903 1.00000000
-0.69855584 0.09490759 4.75639277 1.00000000
-0.32879465 0.21907014 4.75792328 1.00000000
-0.40796233 0.77757546 4.74075380 1.00000000
-0.78102268 0.65349742 4.73659143 1.00000000
-0.74139388 0.09497175 4.75492437 1.00000000
-0.33019459 0.15786554 4.77251196 1.00000000
-0.36513093 0.77769122 4.74203190 1.00000000
-0.78496271 0.71841109 4.75784853 1.00000000
1.07632482 -1.69763903 4.50170916 1.00000000
1.75021059 -1.70084469 4.50941871 1.00000000
1.75313474 -1.19739424 4.51828430 1.00000000
1.07865842 -1.19601800 4.51387013 1.00000000
1.68329236 -1.69226030 4.48884373 1.00000000
1.75102935 -1.24127432 4.51191820 1.00000000
1.14022697 -1.19431777 4.50842579 1.00000000
1.07781162 -1.65503249 4.50947624 1.00000000
1.62269559 -1.69466446 4.49460281 1.00000000
1.74894164 -1.28505131 4.50560539 1.00000000
1.20457799 -1.20007027 4.52684860 1.00000000
1.07483612 -1.60074325 4.49392254 1.00000000
1.57359424 -1.70997997 4.53130363 1.00000000
1.74687294 -1.32872810 4.49934989 1.00000000
1.26616768 -1.19835873 4.52136811 1.00000000
1.07632167 -1.55805707 4.50168318 1.00000000
1.50706885 -1.70122466 4.51031943 1.00000000
1.75112574 -1.38123522 4.51220206 1.00000000
1.32192115 -1.19555715 4.51239672 1.00000000
1.07781801 -1.51524495 4.50950006 1.00000000
1.44603443 -1.70372404 4.51630658 1.00000000
1.74905960 -1.42485589 4.50595444 1.00000000
1.38320064 -1.19386410 4.50697535 1.00000000
1.07932402 -1.47230312 4.51736733 1.00000000
1.38019529 -1.69490985 4.49518107 1.00000000
1.75421574 -1.47383566 4.52153688 1.00000000
1.44843522 -1.19958404 4.52529394 1.00000000
1.07565322 -1.42206157 4.49818055 1.00000000
1.31918857 -1.69738162 4.50110212 1.00000000
1.75214501 -1.51742458 4.51527562 1.00000000
1.50973323 -1.19787932 4.51983529 1.00000000
1.07715227 -1.37906937 4.50601169 1.00000000
1.26381610 -1.70157410 4.51114697 1.00000000
1.75009771 -1.56092219 4.50908503 1.00000000
1.57559422 -1.20359809 4.53814992 1.00000000
1.07415293 -1.32566023 4.49033335 1.00000000
1.20248362 -1.70410406 4.51720736 1.00000000
1.74807538 -1.60433236 4.50296975 1.00000000
1.62603237 -1.19341836 4.50555030 1.00000000
1.07564844 -1.28258413 4.49814609 1.00000000
1.13762455 -1.69513718 4.49571605 1.00000000
1.75222701 -1.65748481 4.51551596 1.00000000
1.68690503 -1.19175224 4.50021512 1.00000000
1.07715058 -1.23937088 4.50599328 1.00000000
-0.96211001 0.64422617 4.35255863 1.00000000
-0.26524787 0.64434857 4.35471691 1.00000000
-0.26615772 1.15237976 4.36523530 1.00000000
-0.96486592 1.15225144 4.36428793 1.00000000
-0.32741371 0.64368940 4.34548810 1.00000000
-0.26748654 1.10823381 4.37994008 1.00000000
-0.90287956 1.15325651 4.36988496 1.00000000
-0.95814471 0.68940054 4.33603267 1.00000000
-0.39133727 0.64446337 4.35623507 1.00000000
-0.26426194 1.05536336 4.34412273 1.00000000
-0.83842670 1.15201642 4.36302641 1.00000000
-0.96056837 0.73451785 4.34616644 1.00000000
-0.45666057 0.64446743 4.35624936 1.00000000
-0.26558335 1.01112165 4.35874526 1.00000000
-0.77296581 1.15197202 4.36280209 1.00000000
-0.96393073 0.78491604 4.36021965 1.00000000
-0.51856944 0.64385787 4.34771241 1.00000000
-0.26478205 0.96545886 4.34981760 1.00000000
-0.71202406 1.15174993 4.36159019 1.00000000
-0.96629406 0.83043742 4.37010185 1.00000000
-0.58281783 0.64456539 4.35753273 1.00000000
-0.26612743 0.92090942 4.36470573 1.00000000
-0.64658140 1.15169672 4.36131699 1.00000000
-0.96238836 0.87516378 4.35382444 1.00000000
-0.64459447 0.64398947 4.34946505 1.00000000
-0.26531643 0.87535068 4.35567064 1.00000000
-0.58443175 1.15290252 4.36802838 1.00000000
-0.96471891 0.92079885 4.36356994 1.00000000
-0.70986389 0.64400869 4.34969051 1.00000000
-0.26668649 0.83048245 4.37083233 1.00000000
-0.52025470 1.15139230 4.35967029 1.00000000
-0.96089461 0.96518988 4.34763198 1.00000000
-0.77068057 0.64410862 4.35104423 1.00000000
-0.26586561 0.78503015 4.36168762 1.00000000
-0.45799987 1.15267142 4.36678886 1.00000000
-0.96319319 1.01093573 4.35724414 1.00000000
-0.83596800 0.64412425 4.35121965 1.00000000
-0.26469876 0.73471496 4.34870072 1.00000000
-0.39252084 1.15264988 4.36669139 1.00000000
-0.95944723 1.05500470 4.34163292 1.00000000
-0.90054464 0.64470867 4.35932355 1.00000000
-0.26386083 0.68963996 4.33936719 1.00000000
-0.32861990 1.15099136 4.35751006 1.00000000
-0.96863348 1.10828390 4.37998923 1.00000000
0.44140906 -1.43555905 4.28514474 1.00000000
1.12876731 -1.43237326 4.27677817 1.00000000
1.12801622 -1.02545810 4.27322390 1.00000000
0.44108950 -1.02735812 4.27974554 1.00000000
1.07238448 -1.44260123 4.30370811 1.00000000
1.12691464 -1.06289692 4.26803800 1.00000000
0.50538795 -1.02753358 4.28034812 1.00000000
0.44156097 -1.40197990 4.28755815 1.00000000
1.00542521 -1.43333292 4.27930114 1.00000000
1.13089845 -1.10515294 4.28679976 1.00000000
0.56970308 -1.02770914 4.28095106 1.00000000
0.44008830 -1.35672649 4.26391131 1.00000000
0.94107959 -1.43311215 4.27871774 1.00000000
1.12540265 -1.13394664 4.26092078 1.00000000
0.62908691 -1.02694658 4.27833308 1.00000000
0.44049249 -1.32010769 4.27036861 1.00000000
0.88359339 -1.44340662 4.30582266 1.00000000
1.12937027 -1.17642155 4.27960662 1.00000000
0.69338807 -1.02711820 4.27892248 1.00000000
0.44064385 -1.28657876 4.27277335 1.00000000
0.81758301 -1.43407875 4.28125900 1.00000000
1.12826520 -1.21374118 4.27440442 1.00000000
0.75829411 -1.03336264 4.30036163 1.00000000
0.44104727 -1.24977726 4.27921790 1.00000000
0.75934033 -1.44440267 4.30844128 1.00000000
1.12784863 -1.24747091 4.27244417 1.00000000
0.81695709 -1.02651607 4.27685548 1.00000000
0.44119765 -1.21613846 4.28160681 1.00000000
0.69394896 -1.43504744 4.28380574 1.00000000
1.12674964 -1.28465663 4.26727047 1.00000000
0.88242194 -1.03277575 4.29834709 1.00000000
0.44159977 -1.17915225 4.28803042 1.00000000
0.62957804 -1.43482384 4.28321488 1.00000000
1.12633625 -1.31830704 4.26532514 1.00000000
0.94040925 -1.02590649 4.27476290 1.00000000
0.44014261 -1.13512171 4.26463326 1.00000000
0.57017580 -1.43601311 4.28634450 1.00000000
1.12524504 -1.35536305 4.26018795 1.00000000
1.00469617 -1.02607308 4.27533505 1.00000000
0.44214922 -1.10823056 4.29679363 1.00000000
0.50578422 -1.43578640 4.28574546 1.00000000
1.12918527 -1.39869128 4.27874495 1.00000000
1.07102721 -1.03234184 4.29685794 1.00000000
0.44069164 -1.06450266 4.27339029 1.00000000
-0.17606690 1.13244587 3.97186612 1.00000000
0.34642802 1.13362892 3.97817082 1.00000000
0.34652906 1.83054374 3.97970133 1.00000000
-0.17625220 1.82889183 3.97492931 1.00000000
0.29942626 1.13413727 3.98079306 1.00000000
0.34713943 1.77317018 3.99336649 1.00000000
-0.12717414 1.83049527 3.97945523 1.00000000
-0.17657535 1.19806847 3.97851965 1.00000000
0.25236508 1.13463215 3.98334517 1.00000000
0.34688634 1.70679699 3.98779368 1.00000000
-0.08226815 1.83183526 3.98323742 1.00000000
-0.17538656 1.25667274 3.96316451 1.00000000
0.20281670 1.13334891 3.97667249 1.00000000
0.34662969 1.64056586 3.98214139 1.00000000
-0.03504185 1.83118274 3.98141173 1.00000000
-0.17588889 1.32234146 3.96973883 1.00000000
0.15574312 1.13383906 3.97920042 1.00000000
0.34725602 1.58265323 3.99616270 1.00000000
0.01214651 1.83050496 3.97951475 1.00000000
-0.17780955 1.39084863 3.99470178 1.00000000
0.10861460 1.13431479 3.98165334 1.00000000
0.34699702 1.51644770 3.99045800 1.00000000
0.06146543 1.83228019 3.98452293 1.00000000
-0.17663215 1.44904997 3.97949410 1.00000000
0.06143367 1.13477557 3.98402843 1.00000000
0.34673435 1.45039104 3.98467128 1.00000000
0.10864528 1.83159485 3.98260498 1.00000000
-0.17711121 1.51516689 3.98576710 1.00000000
0.01216112 1.13356608 3.97773863 1.00000000
0.34737722 1.39190965 3.99906190 1.00000000
0.15578278 1.83088542 3.98061898 1.00000000
-0.17758219 1.58144056 3.99193544 1.00000000
-0.03502934 1.13402182 3.98008793 1.00000000
0.34632864 1.32373445 3.97575848 1.00000000
0.20287570 1.83015256 3.97856687 1.00000000
-0.17643898 1.63906147 3.97717039 1.00000000
-0.08226705 1.13446166 3.98235454 1.00000000
0.34605558 1.25810001 3.96973953 1.00000000
0.25241364 1.83204602 3.98390809 1.00000000
-0.17690478 1.70536543 3.98327159 1.00000000
-0.12710045 1.13354459 3.97758290 1.00000000
0.34670373 1.19922535 3.98424866 1.00000000
0.29949561 1.83130600 3.98183610 1.00000000
-0.17736286 1.77181797 3.98927293 1.00000000
1.32655143 -1.15342467 3.93567033 1.00000000
2.00260809 -1.15289123 3.93413694 1.00000000
2.00409306 -0.71253385 3.93758332 1.00000000
1.32773361 -0.71309998 3.93995454 1.00000000
1.94164827 -1.15162605 3.93046045 1.00000000
2.00109311 -0.75122320 3.93069657 1.00000000
1.38533551 -0.70991249 3.92668565 1.00000000
1.32445255 -1.10852426 3.92807570 1.00000000
1.87526536 -1.14928981 3.92367263 1.00000000
1.99811971 -0.78979764 3.92387047 1.00000000
1.45386289 -0.71536182 3.94936626 1.00000000
1.32160770 -1.06715216 3.91778119 1.00000000
1.81973859 -1.15428967 3.93819468 1.00000000
1.99517435 -0.82825981 3.91710842 1.00000000
1.51120125 -0.71216328 3.93605162 1.00000000
1.32391472 -1.02956502 3.92613057 1.00000000
1.75886162 -1.15300666 3.93446642 1.00000000
1.99882910 -0.86851153 3.92549122 1.00000000
1.56819323 -0.70899340 3.92285596 1.00000000
1.32623985 -0.99183943 3.93454516 1.00000000
1.69267722 -1.15063636 3.92757972 1.00000000
2.00152086 -0.91254584 3.93166368 1.00000000
1.63760540 -0.71441137 3.94540623 1.00000000
1.32337533 -0.95067670 3.92417977 1.00000000
1.63654686 -1.15572055 3.94234660 1.00000000
1.99858483 -0.95089623 3.92492337 1.00000000
1.69433939 -0.71123458 3.93218199 1.00000000
1.32570450 -0.91281851 3.93260905 1.00000000
1.56618205 -1.14693304 3.91681936 1.00000000
2.00220498 -0.99143331 3.93322639 1.00000000
1.76027070 -0.71268585 3.93822133 1.00000000
1.32358737 -0.86836054 3.92494831 1.00000000
1.50977878 -1.15201701 3.93158581 1.00000000
1.99928697 -1.02968722 3.92652746 1.00000000
1.82101071 -0.71346667 3.94147008 1.00000000
1.32072439 -0.82758156 3.91458812 1.00000000
1.45301400 -1.15717640 3.94657100 1.00000000
1.99640370 -1.06783993 3.91990799 1.00000000
1.87716234 -0.71031977 3.92837015 1.00000000
1.32304834 -0.78956986 3.92299879 1.00000000
1.38359810 -1.14827107 3.92070172 1.00000000
1.99998091 -1.10853192 3.92811275 1.00000000
1.94327802 -0.71175940 3.93436109 1.00000000
1.32538512 -0.75141011 3.93145564 1.00000000
-0.88018025 0.16766508 3.80956310 1.00000000
-0.34005857 0.16794070 3.80089274 1.00000000
-0.33845569 0.88684363 3.78804771 1.00000000
-0.87611098 0.88767087 3.79367964 1.00000000
-0.38944759 0.16791419 3.80172439 1.00000000
-0.33702356 0.81973202 3.77608115 1.00000000
-0.82684714 0.88762574 3.79338001 1.00000000
-0.87145223 0.23390364 3.77483998 1.00000000
-0.43885328 0.16788849 3.80253220 1.00000000
-0.33781774 0.75314579 3.78264548 1.00000000
-0.77758505 0.88757712 3.79305578 1.00000000
-0.87503993 0.29927937 3.78915418 1.00000000
-0.48827460 0.16786363 3.80331495 1.00000000
-0.33903687 0.69079688 3.79274971 1.00000000
-0.72832572 0.88752509 3.79270746 1.00000000
-0.87211266 0.36252018 3.77752666 1.00000000
-0.53771043 0.16783966 3.80407143 1.00000000
-0.33755526 0.62415105 3.78037168 1.00000000
-0.67907011 0.88746972 3.79233557 1.00000000
-0.87559514 0.42837645 3.79142210 1.00000000
-0.58647132 0.16752578 3.81341471 1.00000000
-0.33604724 0.55788730 3.76777403 1.00000000
-0.63271161 0.88814815 3.79713939 1.00000000
-0.87900386 0.49466348 3.80502402 1.00000000
-0.63598633 0.16751240 3.81385745 1.00000000
-0.33965146 0.49430734 3.79772950 1.00000000
-0.58343454 0.88811069 3.79689393 1.00000000
-0.87087892 0.55821487 3.77270097 1.00000000
-0.68219589 0.16773304 3.80736483 1.00000000
-0.33811737 0.42816162 3.78491510 1.00000000
-0.53529752 0.88714806 3.79012065 1.00000000
-0.87422631 0.62461772 3.78605881 1.00000000
-0.73168288 0.16771434 3.80796515 1.00000000
-0.33655542 0.36242232 3.77186896 1.00000000
-0.48607280 0.88707614 3.78963200 1.00000000
-0.87750517 0.69142200 3.79914393 1.00000000
-0.78117692 0.16769675 3.80853237 1.00000000
-0.33783554 0.29927197 3.78248034 1.00000000
-0.43685705 0.88700137 3.78912320 1.00000000
-0.87475142 0.75378003 3.78820691 1.00000000
-0.83067654 0.16768032 3.80906539 1.00000000
-0.33623276 0.23398772 3.76909464 1.00000000
-0.38765109 0.88692384 3.78859489 1.00000000
-0.87295314 0.82038790 3.78107618 1.00000000
-1.38300523 -1.38307048 3.53723907 1.00000000
-0.65400349 -1.38116209 3.53292978 1.00000000
-0.64689940 -0.64760046 3.49948318 1.00000000
-1.36704124 -0.64711706 3.49756005 1.00000000
-0.72113521 -1.38109075 3.53276415 1.00000000
-0.64664400 -0.71385055 3.49823540 1.00000000
-1.30064488 -0.64721824 3.49796351 1.00000000
-1.36712803 -1.30115790 3.49754197 1.00000000
-0.78827036 -1.38103537 3.53263488 1.00000000
-0.65245605 -0.78619601 3.52585725 1.00000000
-1.23429327 -0.64593196 3.49282356 1.00000000
-1.36788740 -1.23538031 3.49946565 1.00000000
-0.85219429 -1.38208697 3.53502570 1.00000000
-0.64708628 -0.84376045 3.50027649 1.00000000
-1.17135047 -0.64721008 3.49792946 1.00000000
-1.38150522 -1.18376100 3.53355758 1.00000000
-0.91935161 -1.38201020 3.53484773 1.00000000
-0.64681628 -0.90993946 3.49895928 1.00000000
-1.10494941 -0.64732766 3.49839846 1.00000000
-1.36689946 -1.10513645 3.49704058 1.00000000
-0.98651424 -1.38195008 3.53470765 1.00000000
-0.65294304 -0.98422470 3.52807779 1.00000000
-1.03827769 -0.64558006 3.49141492 1.00000000
-1.36759586 -1.03921438 3.49880675 1.00000000
-1.04848254 -1.37709745 3.52365761 1.00000000
-0.64728062 -1.04001904 3.50110528 1.00000000
-0.97558901 -0.64727339 3.49818016 1.00000000
-1.38019084 -0.98499133 3.53034036 1.00000000
-1.11763173 -1.38272574 3.53646706 1.00000000
-0.64699507 -1.10611879 3.49971414 1.00000000
-0.90917547 -0.64740459 3.49870359 1.00000000
-1.36667249 -0.90917229 3.49654314 1.00000000
-1.18480408 -1.38265011 3.53629168 1.00000000
-0.65345931 -1.18254050 3.53043743 1.00000000
-0.84275606 -0.64754741 3.49927344 1.00000000
-1.36731448 -0.84312837 3.49817324 1.00000000
-1.24716921 -1.37892589 3.52781058 1.00000000
-0.64748333 -1.23638349 3.50197384 1.00000000
-0.77977440 -0.64730619 3.49830892 1.00000000
-1.37902531 -0.78666350 3.52749540 1.00000000
-1.31584595 -1.38317083 3.53747071 1.00000000
-0.64718137 -1.30239531 3.50050467 1.00000000
-0.71334256 -0.64744841 3.49887640 1.00000000
-1.36644667 -0.71326449 3.49604857 1.00000000
-1.64471493 -1.21713307 3.47750495 1.00000000
-0.95479360 -1.21214874 3.46514266 1.00000000
-0.95492911 -0.72036644 3.46580688 1.00000000
-1.64302562 -0.72262452 3.47411641 1.00000000
-1.01757262 -1.21292043 3.46705853 1.00000000
-0.95399204 -0.76471971 3.46259755 1.00000000
-1.58064551 -0.72259701 3.47401526 1.00000000
-1.64649132 -1.17319017 3.48125819 1.00000000
-1.08037525 -1.21364303 3.46885232 1.00000000
-0.95302702 -0.80896803 3.45929307 1.00000000
-1.51820667 -0.72253120 3.47377315 1.00000000
-1.64820029 -1.12910375 3.48486957 1.00000000
-1.14319083 -1.21431110 3.47051057 1.00000000
-0.95203296 -0.85310685 3.45588979 1.00000000
-1.45571687 -0.72242759 3.47339192 1.00000000
-1.63216838 -1.07331668 3.45114915 1.00000000
-1.20600793 -1.21491938 3.47202015 1.00000000
-0.95251125 -0.89497621 3.45750126 1.00000000
-1.39318409 -0.72228691 3.47287425 1.00000000
-1.63404873 -1.02963514 3.45512108 1.00000000
-1.26881448 -1.21546282 3.47336854 1.00000000
-0.95147664 -0.93897002 3.45395992 1.00000000
-1.33061644 -0.72211009 3.47222362 1.00000000
-1.63586215 -0.98581021 3.45895219 1.00000000
-1.33159790 -1.21593673 3.47454406 1.00000000
-0.95040996 -0.98284164 3.45030942 1.00000000
-1.26802211 -0.72189830 3.47144423 1.00000000
-1.63761203 -0.94184934 3.46264963 1.00000000
-1.39434529 -1.21633682 3.47553606 1.00000000
-0.94930994 -1.02658560 3.44654545 1.00000000
-1.20540921 -0.72165285 3.47054100 1.00000000
-1.63930153 -0.89775945 3.46622004 1.00000000
-1.45704358 -1.21665933 3.47633519 1.00000000
-0.94817528 -1.07019619 3.44266353 1.00000000
-1.14278578 -0.72137525 3.46951941 1.00000000
-1.63832452 -0.85566074 3.46417810 1.00000000
-1.51967974 -1.21690109 3.47693355 1.00000000
-0.95697387 -1.12445463 3.47260335 1.00000000
-1.08015962 -0.72106713 3.46838549 1.00000000
-1.63994412 -0.81142733 3.46760146 1.00000000
-1.58224096 -1.21705959 3.47732494 1.00000000
-0.95590178 -1.16837031 3.46893443 1.00000000
-1.01753832 -0.72073024 3.46714570 1.00000000
-1.64151032 -0.76708010 3.47091248 1.00000000
-1.50935364 -0.02058802 3.43693832 1.00000000
-0.96565821 -0.02082519 3.43952187 1.00000000
-0.96717614 0.70605086 3.44490135 1.00000000
-1.51209258 0.70591166 3.44335582 1.00000000
-1.01390193 -0.02069193 3.43799941 1.00000000
-0.96055137 0.63639264 3.42269050 1.00000000
-1.46344652 0.70593947 3.44363796 1.00000000
-1.51034312 0.04474253 3.43918860 1.00000000
-1.06517048 -0.02091775 3.44061532 1.00000000
-0.96516878 0.57055009 3.43812457 1.00000000
-1.41257619 0.70584035 3.44273481 1.00000000
-1.51129422 0.11015583 3.44135251 1.00000000
-1.11398351 -0.02041081 3.43478792 1.00000000
-0.96463245 0.50495017 3.43630192 1.00000000
-1.36395701 0.70587503 3.44308125 1.00000000
-1.51220895 0.17564716 3.44343458 1.00000000
-1.16231779 -0.02032991 3.43386924 1.00000000
-0.96407821 0.43941138 3.43441934 1.00000000
-1.31298154 0.70573838 3.44182771 1.00000000
-1.50434656 0.24325423 3.42575655 1.00000000
-1.21354833 -0.02053506 3.43624677 1.00000000
-0.96350529 0.37393681 3.43247424 1.00000000
-1.26438962 0.70577994 3.44223859 1.00000000
-1.50533591 0.30854575 3.42800654 1.00000000
-1.26191437 -0.02046261 3.43542559 1.00000000
-0.96291287 0.30852975 3.43046386 1.00000000
-1.21583499 0.70583556 3.44278027 1.00000000
-1.50628967 0.37391403 3.43017642 1.00000000
-1.31033458 -0.02040685 3.43479691 1.00000000
-0.96230008 0.24319366 3.42838530 1.00000000
-1.16476940 0.70565492 3.44111668 1.00000000
-1.50720957 0.43935500 3.43227010 1.00000000
-1.36143800 -0.02056184 3.43659605 1.00000000
-0.96741930 0.17555974 3.44549891 1.00000000
-1.11623671 0.70571730 3.44172162 1.00000000
-1.50809723 0.50486485 3.43429122 1.00000000
-1.40989891 -0.02051477 3.43606761 1.00000000
-0.96685320 0.11002523 3.44357661 1.00000000
-1.06673499 0.70614267 3.44571239 1.00000000
-1.50895417 0.57044003 3.43624320 1.00000000
-1.46085203 -0.02062642 3.43736676 1.00000000
-0.96626649 0.04456229 3.44158535 1.00000000
-1.01564327 0.70594347 3.44387787 1.00000000
-1.50190908 0.63621370 3.42040460 1.00000000
0.40115532 0.82744012 3.39279217 1.00000000
1.13203930 0.82786423 3.39605500 1.00000000
1.13406355 1.29983076 3.40369739 1.00000000
0.40180696 1.29946907 3.40216390 1.00000000
1.06272257 0.82641613 3.38581480 1.00000000
1.13070681 1.25376747 3.39102284 1.00000000
0.46795072 1.29813230 3.39720638 1.00000000
0.40129801 0.87213882 3.39488186 1.00000000
0.99793577 0.82733937 3.39230330 1.00000000
1.13376247 1.21427791 3.40256074 1.00000000
0.53555158 1.30018280 3.40485369 1.00000000
0.40126493 0.91272792 3.39436471 1.00000000
0.93301250 0.82718815 3.39121250 1.00000000
1.13037803 1.16849423 3.38978151 1.00000000
0.60154652 1.29880578 3.39974703 1.00000000
0.40140520 0.95748676 3.39641851 1.00000000
0.86412935 0.82683526 3.38869763 1.00000000
1.13345556 1.12877159 3.40140206 1.00000000
0.66733398 1.29738375 3.39447172 1.00000000
0.40137175 0.99807945 3.39589590 1.00000000
0.79931906 0.82669310 3.38767068 1.00000000
1.13004371 1.08327281 3.38851926 1.00000000
0.73535530 1.29953275 3.40248637 1.00000000
0.40150964 1.04289638 3.39791429 1.00000000
0.73398503 0.82757246 3.39384922 1.00000000
1.13314289 1.04331337 3.40022165 1.00000000
0.80097867 1.29807559 3.39708095 1.00000000
0.40061219 1.08248223 3.38456544 1.00000000
0.66590552 0.82622462 3.38431592 1.00000000
1.13269134 0.99852877 3.39851673 1.00000000
0.86589991 1.29827471 3.39783866 1.00000000
0.40161137 1.12836501 3.39936992 1.00000000
0.60039227 0.82708462 3.39035866 1.00000000
1.13282457 0.95790482 3.39901985 1.00000000
0.93484834 1.29881625 3.39987151 1.00000000
0.40072325 1.16769267 3.38615976 1.00000000
0.53464371 0.82792067 3.39623097 1.00000000
1.13236803 0.91317030 3.39729609 1.00000000
0.99985970 1.29903254 3.40069303 1.00000000
0.40171046 1.21389007 3.40078619 1.00000000
0.46706768 0.82662680 3.38707935 1.00000000
1.13250071 0.87254749 3.39779716 1.00000000
1.06498589 1.29749131 3.39497440 1.00000000
0.40083157 1.25296510 3.38771329 1.00000000
