0.56000000 -3.86000000 20.00000000 1.00000000
2.74000000 -3.86000000 20.00000000 1.00000000
2.68627451 -2.23529412 19.60784314 1.00000000
0.54901961 -2.23529412 19.60784314 1.00000000
2.54000000 -3.86000000 20.00000000 1.00000000
2.68627451 -2.37254902 19.60784314 1.00000000
0.74509804 -2.23529412 19.60784314 1.00000000
0.54901961 -3.62745098 19.60784314 1.00000000
2.34000000 -3.86000000 20.00000000 1.00000000
2.74000000 -2.58000000 20.00000000 1.00000000
0.94117647 -2.23529412 19.60784314 1.00000000
0.54901961 -3.49019608 19.60784314 1.00000000
2.16000000 -3.86000000 20.00000000 1.00000000
2.74000000 -2.72000000 20.00000000 1.00000000
1.13725490 -2.23529412 19.60784314 1.00000000
0.54901961 -3.35294118 19.60784314 1.00000000
1.96000000 -3.86000000 20.00000000 1.00000000
2.68627451 -2.80392157 19.60784314 1.00000000
1.33333333 -2.23529412 19.60784314 1.00000000
0.54901961 -3.21568627 19.60784314 1.00000000
1.76000000 -3.86000000 20.00000000 1.00000000
2.68627451 -2.94117647 19.60784314 1.00000000
1.52941176 -2.23529412 19.60784314 1.00000000
0.54901961 -3.07843137 19.60784314 1.00000000
1.56000000 -3.86000000 20.00000000 1.00000000
2.68627451 -3.07843137 19.60784314 1.00000000
1.72549020 -2.23529412 19.60784314 1.00000000
0.54901961 -2.94117647 19.60784314 1.00000000
1.36000000 -3.86000000 20.00000000 1.00000000
2.68627451 -3.21568627 19.60784314 1.00000000
1.92156863 -2.23529412 19.60784314 1.00000000
0.54901961 -2.80392157 19.60784314 1.00000000
1.16000000 -3.86000000 20.00000000 1.00000000
2.68627451 -3.35294118 19.60784314 1.00000000
2.11764706 -2.23529412 19.60784314 1.00000000
0.56000000 -2.72000000 20.00000000 1.00000000
0.96000000 -3.86000000 20.00000000 1.00000000
2.68627451 -3.49019608 19.60784314 1.00000000
2.29411765 -2.23529412 19.60784314 1.00000000
0.56000000 -2.58000000 20.00000000 1.00000000
0.76000000 -3.86000000 20.00000000 1.00000000
2.68627451 -3.62745098 19.60784314 1.00000000
2.49019608 -2.23529412 19.60784314 1.00000000
0.54901961 -2.37254902 19.60784314 1.00000000
-5.21568627 5.37254902 19.60784314 1.00000000
-3.05882353 5.37254902 19.60784314 1.00000000
-3.05882353 6.76470588 19.60784314 1.00000000
-5.21568627 6.76470588 19.60784314 1.00000000
-3.25490196 5.37254902 19.60784314 1.00000000
-3.05882353 6.62745098 19.60784314 1.00000000
-5.01960784 6.76470588 19.60784314 1.00000000
-5.21568627 5.49019608 19.60784314 1.00000000
-3.45098039 5.37254902 19.60784314 1.00000000
-3.05882353 6.50980392 19.60784314 1.00000000
-4.82352941 6.76470588 19.60784314 1.00000000
-5.32000000 5.72000000 20.00000000 1.00000000
-3.64705882 5.37254902 19.60784314 1.00000000
-3.05882353 6.37254902 19.60784314 1.00000000
-4.62745098 6.76470588 19.60784314 1.00000000
-5.21568627 5.74509804 19.60784314 1.00000000
-3.84313725 5.37254902 19.60784314 1.00000000
-3.05882353 6.25490196 19.60784314 1.00000000
-4.43137255 6.76470588 19.60784314 1.00000000
-5.32000000 5.98000000 20.00000000 1.00000000
-4.03921569 5.37254902 19.60784314 1.00000000
-3.05882353 6.11764706 19.60784314 1.00000000
-4.23529412 6.76470588 19.60784314 1.00000000
-5.21568627 6.00000000 19.60784314 1.00000000
-4.23529412 5.37254902 19.60784314 1.00000000
-3.05882353 6.00000000 19.60784314 1.00000000
-4.03921569 6.76470588 19.60784314 1.00000000
-5.21568627 6.11764706 19.60784314 1.00000000
-4.43137255 5.37254902 19.60784314 1.00000000
-3.12000000 5.98000000 20.00000000 1.00000000
-3.84313725 6.76470588 19.60784314 1.00000000
-5.21568627 6.25490196 19.60784314 1.00000000
-4.62745098 5.37254902 19.60784314 1.00000000
-3.05882353 5.74509804 19.60784314 1.00000000
-3.64705882 6.76470588 19.60784314 1.00000000
-5.21568627 6.37254902 19.60784314 1.00000000
-4.82352941 5.37254902 19.60784314 1.00000000
-3.12000000 5.72000000 20.00000000 1.00000000
-3.45098039 6.76470588 19.60784314 1.00000000
-5.21568627 6.50980392 19.60784314 1.00000000
-5.01960784 5.37254902 19.60784314 1.00000000
-3.05882353 5.49019608 19.60784314 1.00000000
-3.25490196 6.76470588 19.60784314 1.00000000
-5.21568627 6.62745098 19.60784314 1.00000000
-1.37037037 -2.79629630 18.51851852 1.00000000
0.24074074 -2.79629630 18.51851852 1.00000000
0.23636364 -0.67272727 18.18181818 1.00000000
-1.34545455 -0.67272727 18.18181818 1.00000000
0.09259259 -2.79629630 18.51851852 1.00000000
0.24074074 -0.88888889 18.51851852 1.00000000
-1.20000000 -0.67272727 18.18181818 1.00000000
-1.34545455 -2.54545455 18.18181818 1.00000000
-0.03703704 -2.79629630 18.51851852 1.00000000
0.23636364 -1.05454545 18.18181818 1.00000000
-1.05454545 -0.67272727 18.18181818 1.00000000
-1.34545455 -2.36363636 18.18181818 1.00000000
-0.18518519 -2.79629630 18.51851852 1.00000000
0.23636364 -1.23636364 18.18181818 1.00000000
-0.90909091 -0.67272727 18.18181818 1.00000000
-1.37037037 -2.22222222 18.51851852 1.00000000
-0.33333333 -2.79629630 18.51851852 1.00000000
0.23636364 -1.41818182 18.18181818 1.00000000
-0.76363636 -0.67272727 18.18181818 1.00000000
-1.34545455 -1.98181818 18.18181818 1.00000000
-0.48148148 -2.79629630 18.51851852 1.00000000
0.24074074 -1.64814815 18.51851852 1.00000000
-0.61818182 -0.67272727 18.18181818 1.00000000
-1.34545455 -1.80000000 18.18181818 1.00000000
-0.62962963 -2.79629630 18.51851852 1.00000000
0.23636364 -1.80000000 18.18181818 1.00000000
-0.47272727 -0.67272727 18.18181818 1.00000000
-1.37037037 -1.64814815 18.51851852 1.00000000
-0.77777778 -2.79629630 18.51851852 1.00000000
0.23636364 -1.98181818 18.18181818 1.00000000
-0.32727273 -0.67272727 18.18181818 1.00000000
-1.34545455 -1.41818182 18.18181818 1.00000000
-0.92592593 -2.79629630 18.51851852 1.00000000
0.24074074 -2.22222222 18.51851852 1.00000000
-0.18181818 -0.67272727 18.18181818 1.00000000
-1.34545455 -1.23636364 18.18181818 1.00000000
-1.07407407 -2.79629630 18.51851852 1.00000000
0.23636364 -2.36363636 18.18181818 1.00000000
-0.03636364 -0.67272727 18.18181818 1.00000000
-1.34545455 -1.05454545 18.18181818 1.00000000
-1.22222222 -2.79629630 18.51851852 1.00000000
0.23636364 -2.54545455 18.18181818 1.00000000
0.09090909 -0.67272727 18.18181818 1.00000000
-1.37037037 -0.88888889 18.51851852 1.00000000
-5.16071429 5.87500000 17.85714286 1.00000000
-3.08928571 5.87500000 17.85714286 1.00000000
-3.08928571 7.41071429 17.85714286 1.00000000
-5.16071429 7.41071429 17.85714286 1.00000000
-3.28571429 5.87500000 17.85714286 1.00000000
-3.03508772 7.15789474 17.54385965 1.00000000
-4.96428571 7.41071429 17.85714286 1.00000000
-5.16071429 6.01785714 17.85714286 1.00000000
-3.46428571 5.87500000 17.85714286 1.00000000
-3.03508772 7.01754386 17.54385965 1.00000000
-4.78571429 7.41071429 17.85714286 1.00000000
-5.07017544 6.05263158 17.54385965 1.00000000
-3.66071429 5.87500000 17.85714286 1.00000000
-3.08928571 7.00000000 17.85714286 1.00000000
-4.58928571 7.41071429 17.85714286 1.00000000
-5.07017544 6.19298246 17.54385965 1.00000000
-3.83928571 5.87500000 17.85714286 1.00000000
-3.08928571 6.85714286 17.85714286 1.00000000
-4.41071429 7.41071429 17.85714286 1.00000000
-5.07017544 6.33333333 17.54385965 1.00000000
-4.03571429 5.87500000 17.85714286 1.00000000
-3.08928571 6.71428571 17.85714286 1.00000000
-4.21428571 7.41071429 17.85714286 1.00000000
-5.16071429 6.57142857 17.85714286 1.00000000
-4.21428571 5.87500000 17.85714286 1.00000000
-3.08928571 6.57142857 17.85714286 1.00000000
-4.03571429 7.41071429 17.85714286 1.00000000
-5.16071429 6.71428571 17.85714286 1.00000000
-4.41071429 5.87500000 17.85714286 1.00000000
-3.03508772 6.33333333 17.54385965 1.00000000
-3.83928571 7.41071429 17.85714286 1.00000000
-5.16071429 6.85714286 17.85714286 1.00000000
-4.58928571 5.87500000 17.85714286 1.00000000
-3.03508772 6.19298246 17.54385965 1.00000000
-3.66071429 7.41071429 17.85714286 1.00000000
-5.16071429 7.00000000 17.85714286 1.00000000
-4.78571429 5.87500000 17.85714286 1.00000000
-3.03508772 6.05263158 17.54385965 1.00000000
-3.46428571 7.41071429 17.85714286 1.00000000
-5.07017544 7.01754386 17.54385965 1.00000000
-4.96428571 5.87500000 17.85714286 1.00000000
-3.08928571 6.01785714 17.85714286 1.00000000
-3.28571429 7.41071429 17.85714286 1.00000000
-5.07017544 7.15789474 17.54385965 1.00000000
-1.50000000 5.37931034 17.24137931 1.00000000
0.60344828 5.37931034 17.24137931 1.00000000
0.61403509 6.89473684 17.54385965 1.00000000
-1.52631579 6.89473684 17.54385965 1.00000000
0.41379310 5.37931034 17.24137931 1.00000000
0.60344828 6.65517241 17.24137931 1.00000000
-1.33333333 6.89473684 17.54385965 1.00000000
-1.50000000 5.50000000 17.24137931 1.00000000
0.22413793 5.37931034 17.24137931 1.00000000
0.60344828 6.53448276 17.24137931 1.00000000
-1.14035088 6.89473684 17.54385965 1.00000000
-1.50000000 5.63793103 17.24137931 1.00000000
0.03448276 5.37931034 17.24137931 1.00000000
0.60344828 6.39655172 17.24137931 1.00000000
-0.94736842 6.89473684 17.54385965 1.00000000
-1.50000000 5.75862069 17.24137931 1.00000000
-0.17241379 5.37931034 17.24137931 1.00000000
0.60344828 6.27586207 17.24137931 1.00000000
-0.75438596 6.89473684 17.54385965 1.00000000
-1.52631579 5.98245614 17.54385965 1.00000000
-0.36206897 5.37931034 17.24137931 1.00000000
0.61403509 6.24561404 17.54385965 1.00000000
-0.56140351 6.89473684 17.54385965 1.00000000
-1.50000000 6.01724138 17.24137931 1.00000000
-0.55172414 5.37931034 17.24137931 1.00000000
0.60344828 6.01724138 17.24137931 1.00000000
-0.36842105 6.89473684 17.54385965 1.00000000
-1.52631579 6.24561404 17.54385965 1.00000000
-0.74137931 5.37931034 17.24137931 1.00000000
0.61403509 5.98245614 17.54385965 1.00000000
-0.17543860 6.89473684 17.54385965 1.00000000
-1.50000000 6.27586207 17.24137931 1.00000000
-0.93103448 5.37931034 17.24137931 1.00000000
0.60344828 5.75862069 17.24137931 1.00000000
0.03508772 6.89473684 17.54385965 1.00000000
-1.50000000 6.39655172 17.24137931 1.00000000
-1.12068966 5.37931034 17.24137931 1.00000000
0.60344828 5.63793103 17.24137931 1.00000000
0.22807018 6.89473684 17.54385965 1.00000000
-1.50000000 6.53448276 17.24137931 1.00000000
-1.31034483 5.37931034 17.24137931 1.00000000
0.60344828 5.50000000 17.24137931 1.00000000
0.42105263 6.89473684 17.54385965 1.00000000
-1.50000000 6.65517241 17.24137931 1.00000000
-6.00000000 3.81034483 17.24137931 1.00000000
-4.37931034 3.81034483 17.24137931 1.00000000
-4.30508475 5.88135593 16.94915254 1.00000000
-5.89830508 5.88135593 16.94915254 1.00000000
-4.51724138 3.81034483 17.24137931 1.00000000
-4.30508475 5.69491525 16.94915254 1.00000000
-5.76271186 5.88135593 16.94915254 1.00000000
-5.89830508 3.94915254 16.94915254 1.00000000
-4.67241379 3.81034483 17.24137931 1.00000000
-4.37931034 5.58620690 17.24137931 1.00000000
-5.61016949 5.88135593 16.94915254 1.00000000
-6.00000000 4.20689655 17.24137931 1.00000000
-4.82758621 3.81034483 17.24137931 1.00000000
-4.30508475 5.30508475 16.94915254 1.00000000
-5.45762712 5.88135593 16.94915254 1.00000000
-5.89830508 4.33898305 16.94915254 1.00000000
-4.96551724 3.81034483 17.24137931 1.00000000
-4.37931034 5.18965517 17.24137931 1.00000000
-5.32203390 5.88135593 16.94915254 1.00000000
-5.89830508 4.52542373 16.94915254 1.00000000
-5.12068966 3.81034483 17.24137931 1.00000000
-4.30508475 4.91525424 16.94915254 1.00000000
-5.16949153 5.88135593 16.94915254 1.00000000
-6.00000000 4.79310345 17.24137931 1.00000000
-5.25862069 3.81034483 17.24137931 1.00000000
-4.37931034 4.79310345 17.24137931 1.00000000
-5.03389831 5.88135593 16.94915254 1.00000000
-5.89830508 4.91525424 16.94915254 1.00000000
-5.41379310 3.81034483 17.24137931 1.00000000
-4.30508475 4.52542373 16.94915254 1.00000000
-4.88135593 5.88135593 16.94915254 1.00000000
-6.00000000 5.18965517 17.24137931 1.00000000
-5.55172414 3.81034483 17.24137931 1.00000000
-4.30508475 4.33898305 16.94915254 1.00000000
-4.74576271 5.88135593 16.94915254 1.00000000
-5.89830508 5.30508475 16.94915254 1.00000000
-5.70689655 3.81034483 17.24137931 1.00000000
-4.37931034 4.20689655 17.24137931 1.00000000
-4.59322034 5.88135593 16.94915254 1.00000000
-6.00000000 5.58620690 17.24137931 1.00000000
-5.86206897 3.81034483 17.24137931 1.00000000
-4.30508475 3.94915254 16.94915254 1.00000000
-4.44067797 5.88135593 16.94915254 1.00000000
-5.89830508 5.69491525 16.94915254 1.00000000
-2.33333333 -4.78333333 16.66666667 1.00000000
-0.78333333 -4.78333333 16.66666667 1.00000000
-0.78333333 -2.71666667 16.66666667 1.00000000
-2.33333333 -2.71666667 16.66666667 1.00000000
-0.91666667 -4.78333333 16.66666667 1.00000000
-0.78333333 -2.90000000 16.66666667 1.00000000
-2.18333333 -2.71666667 16.66666667 1.00000000
-2.37288136 -4.67796610 16.94915254 1.00000000
-1.06666667 -4.78333333 16.66666667 1.00000000
-0.79661017 -3.15254237 16.94915254 1.00000000
-2.05000000 -2.71666667 16.66666667 1.00000000
-2.37288136 -4.49152542 16.94915254 1.00000000
-1.20000000 -4.78333333 16.66666667 1.00000000
-0.79661017 -3.33898305 16.94915254 1.00000000
-1.90000000 -2.71666667 16.66666667 1.00000000
-2.33333333 -4.21666667 16.66666667 1.00000000
-1.35000000 -4.78333333 16.66666667 1.00000000
-0.78333333 -3.46666667 16.66666667 1.00000000
-1.76666667 -2.71666667 16.66666667 1.00000000
-2.37288136 -4.10169492 16.94915254 1.00000000
-1.48333333 -4.78333333 16.66666667 1.00000000
-0.79661017 -3.72881356 16.94915254 1.00000000
-1.61666667 -2.71666667 16.66666667 1.00000000
-2.37288136 -3.91525424 16.94915254 1.00000000
-1.61666667 -4.78333333 16.66666667 1.00000000
-0.79661017 -3.91525424 16.94915254 1.00000000
-1.48333333 -2.71666667 16.66666667 1.00000000
-2.37288136 -3.72881356 16.94915254 1.00000000
-1.76666667 -4.78333333 16.66666667 1.00000000
-0.79661017 -4.10169492 16.94915254 1.00000000
-1.35000000 -2.71666667 16.66666667 1.00000000
-2.33333333 -3.46666667 16.66666667 1.00000000
-1.90000000 -4.78333333 16.66666667 1.00000000
-0.78333333 -4.21666667 16.66666667 1.00000000
-1.20000000 -2.71666667 16.66666667 1.00000000
-2.37288136 -3.33898305 16.94915254 1.00000000
-2.05000000 -4.78333333 16.66666667 1.00000000
-0.79661017 -4.49152542 16.94915254 1.00000000
-1.06666667 -2.71666667 16.66666667 1.00000000
-2.37288136 -3.15254237 16.94915254 1.00000000
-2.18333333 -4.78333333 16.66666667 1.00000000
-0.79661017 -4.67796610 16.94915254 1.00000000
-0.91666667 -2.71666667 16.66666667 1.00000000
-2.33333333 -2.90000000 16.66666667 1.00000000
1.09677419 -5.46774194 16.12903226 1.00000000
3.14516129 -5.46774194 16.12903226 1.00000000
3.09523810 -4.31746032 15.87301587 1.00000000
1.07936508 -4.31746032 15.87301587 1.00000000
2.96774194 -5.46774194 16.12903226 1.00000000
3.09523810 -4.41269841 15.87301587 1.00000000
1.26984127 -4.31746032 15.87301587 1.00000000
1.09677419 -5.37096774 16.12903226 1.00000000
2.77419355 -5.46774194 16.12903226 1.00000000
3.14516129 -4.59677419 16.12903226 1.00000000
1.44444444 -4.31746032 15.87301587 1.00000000
1.09677419 -5.27419355 16.12903226 1.00000000
2.59677419 -5.46774194 16.12903226 1.00000000
3.14516129 -4.69354839 16.12903226 1.00000000
1.63492063 -4.31746032 15.87301587 1.00000000
1.09677419 -5.17741935 16.12903226 1.00000000
2.40322581 -5.46774194 16.12903226 1.00000000
3.14516129 -4.79032258 16.12903226 1.00000000
1.80952381 -4.31746032 15.87301587 1.00000000
1.09677419 -5.08064516 16.12903226 1.00000000
2.22580645 -5.46774194 16.12903226 1.00000000
3.14516129 -4.88709677 16.12903226 1.00000000
2.00000000 -4.31746032 15.87301587 1.00000000
1.09677419 -4.98387097 16.12903226 1.00000000
2.03225806 -5.46774194 16.12903226 1.00000000
3.14516129 -4.98387097 16.12903226 1.00000000
2.19047619 -4.31746032 15.87301587 1.00000000
1.09677419 -4.88709677 16.12903226 1.00000000
1.83870968 -5.46774194 16.12903226 1.00000000
3.14516129 -5.08064516 16.12903226 1.00000000
2.36507937 -4.31746032 15.87301587 1.00000000
1.09677419 -4.79032258 16.12903226 1.00000000
1.66129032 -5.46774194 16.12903226 1.00000000
3.14516129 -5.17741935 16.12903226 1.00000000
2.55555556 -4.31746032 15.87301587 1.00000000
1.09677419 -4.69354839 16.12903226 1.00000000
1.46774194 -5.46774194 16.12903226 1.00000000
3.14516129 -5.27419355 16.12903226 1.00000000
2.73015873 -4.31746032 15.87301587 1.00000000
1.09677419 -4.59677419 16.12903226 1.00000000
1.29032258 -5.46774194 16.12903226 1.00000000
3.14516129 -5.37096774 16.12903226 1.00000000
2.92063492 -4.31746032 15.87301587 1.00000000
1.07936508 -4.41269841 15.87301587 1.00000000
5.23809524 4.69841270 15.87301587 1.00000000
7.39682540 4.69841270 15.87301587 1.00000000
7.51612903 6.53225806 16.12903226 1.00000000
5.32258065 6.53225806 16.12903226 1.00000000
7.20634921 4.69841270 15.87301587 1.00000000
7.39682540 6.28571429 15.87301587 1.00000000
5.51612903 6.53225806 16.12903226 1.00000000
5.23809524 4.85714286 15.87301587 1.00000000
7.00000000 4.69841270 15.87301587 1.00000000
7.39682540 6.12698413 15.87301587 1.00000000
5.70967742 6.53225806 16.12903226 1.00000000
5.23809524 5.01587302 15.87301587 1.00000000
6.80952381 4.69841270 15.87301587 1.00000000
7.39682540 5.96825397 15.87301587 1.00000000
5.91935484 6.53225806 16.12903226 1.00000000
5.23809524 5.17460317 15.87301587 1.00000000
6.61904762 4.69841270 15.87301587 1.00000000
7.39682540 5.80952381 15.87301587 1.00000000
6.11290323 6.53225806 16.12903226 1.00000000
5.23809524 5.33333333 15.87301587 1.00000000
6.41269841 4.69841270 15.87301587 1.00000000
7.39682540 5.65079365 15.87301587 1.00000000
6.32258065 6.53225806 16.12903226 1.00000000
5.23809524 5.49206349 15.87301587 1.00000000
6.22222222 4.69841270 15.87301587 1.00000000
7.39682540 5.49206349 15.87301587 1.00000000
6.51612903 6.53225806 16.12903226 1.00000000
5.23809524 5.65079365 15.87301587 1.00000000
6.01587302 4.69841270 15.87301587 1.00000000
7.39682540 5.33333333 15.87301587 1.00000000
6.72580645 6.53225806 16.12903226 1.00000000
5.23809524 5.80952381 15.87301587 1.00000000
5.82539683 4.69841270 15.87301587 1.00000000
7.39682540 5.17460317 15.87301587 1.00000000
6.91935484 6.53225806 16.12903226 1.00000000
5.23809524 5.96825397 15.87301587 1.00000000
5.61904762 4.69841270 15.87301587 1.00000000
7.39682540 5.01587302 15.87301587 1.00000000
7.11290323 6.53225806 16.12903226 1.00000000
5.23809524 6.12698413 15.87301587 1.00000000
5.42857143 4.69841270 15.87301587 1.00000000
7.39682540 4.85714286 15.87301587 1.00000000
7.32258065 6.53225806 16.12903226 1.00000000
5.23809524 6.28571429 15.87301587 1.00000000
-2.35714286 0.28571429 14.28571429 1.00000000
-0.98571429 0.28571429 14.28571429 1.00000000
-0.98571429 2.34285714 14.28571429 1.00000000
-2.35714286 2.34285714 14.28571429 1.00000000
-1.10000000 0.28571429 14.28571429 1.00000000
-0.98571429 2.15714286 14.28571429 1.00000000
-2.22857143 2.34285714 14.28571429 1.00000000
-2.35714286 0.47142857 14.28571429 1.00000000
-1.22857143 0.28571429 14.28571429 1.00000000
-0.98571429 1.97142857 14.28571429 1.00000000
-2.10000000 2.34285714 14.28571429 1.00000000
-2.39130435 0.66666667 14.49275362 1.00000000
-1.35714286 0.28571429 14.28571429 1.00000000
-0.98571429 1.78571429 14.28571429 1.00000000
-1.97142857 2.34285714 14.28571429 1.00000000
-2.39130435 0.85507246 14.49275362 1.00000000
-1.48571429 0.28571429 14.28571429 1.00000000
-0.98571429 1.60000000 14.28571429 1.00000000
-1.85714286 2.34285714 14.28571429 1.00000000
-2.35714286 1.04285714 14.28571429 1.00000000
-1.60000000 0.28571429 14.28571429 1.00000000
-0.98571429 1.41428571 14.28571429 1.00000000
-1.72857143 2.34285714 14.28571429 1.00000000
-2.35714286 1.22857143 14.28571429 1.00000000
-1.72857143 0.28571429 14.28571429 1.00000000
-0.98571429 1.22857143 14.28571429 1.00000000
-1.60000000 2.34285714 14.28571429 1.00000000
-2.35714286 1.41428571 14.28571429 1.00000000
-1.85714286 0.28571429 14.28571429 1.00000000
-0.98571429 1.04285714 14.28571429 1.00000000
-1.48571429 2.34285714 14.28571429 1.00000000
-2.35714286 1.60000000 14.28571429 1.00000000
-1.97142857 0.28571429 14.28571429 1.00000000
-1.00000000 0.85507246 14.49275362 1.00000000
-1.35714286 2.34285714 14.28571429 1.00000000
-2.35714286 1.78571429 14.28571429 1.00000000
-2.10000000 0.28571429 14.28571429 1.00000000
-1.00000000 0.66666667 14.49275362 1.00000000
-1.22857143 2.34285714 14.28571429 1.00000000
-2.35714286 1.97142857 14.28571429 1.00000000
-2.22857143 0.28571429 14.28571429 1.00000000
-0.98571429 0.47142857 14.28571429 1.00000000
-1.10000000 2.34285714 14.28571429 1.00000000
-2.35714286 2.15714286 14.28571429 1.00000000
3.27397260 -5.16438356 13.69863014 1.00000000
5.31506849 -5.16438356 13.69863014 1.00000000
5.24324324 -3.58108108 13.51351351 1.00000000
3.22972973 -3.58108108 13.51351351 1.00000000
5.13698630 -5.16438356 13.69863014 1.00000000
5.24324324 -3.71621622 13.51351351 1.00000000
3.41891892 -3.58108108 13.51351351 1.00000000
3.27397260 -5.02739726 13.69863014 1.00000000
4.94520548 -5.16438356 13.69863014 1.00000000
5.24324324 -3.85135135 13.51351351 1.00000000
3.59459459 -3.58108108 13.51351351 1.00000000
3.22972973 -4.81081081 13.51351351 1.00000000
4.75342466 -5.16438356 13.69863014 1.00000000
5.24324324 -3.98648649 13.51351351 1.00000000
3.78378378 -3.58108108 13.51351351 1.00000000
3.22972973 -4.67567568 13.51351351 1.00000000
4.57534247 -5.16438356 13.69863014 1.00000000
5.31506849 -4.19178082 13.69863014 1.00000000
3.95945946 -3.58108108 13.51351351 1.00000000
3.22972973 -4.54054054 13.51351351 1.00000000
4.38356164 -5.16438356 13.69863014 1.00000000
5.31506849 -4.32876712 13.69863014 1.00000000
4.14864865 -3.58108108 13.51351351 1.00000000
3.22972973 -4.40540541 13.51351351 1.00000000
4.20547945 -5.16438356 13.69863014 1.00000000
5.24324324 -4.40540541 13.51351351 1.00000000
4.32432432 -3.58108108 13.51351351 1.00000000
3.27397260 -4.32876712 13.69863014 1.00000000
4.01369863 -5.16438356 13.69863014 1.00000000
5.24324324 -4.54054054 13.51351351 1.00000000
4.51351351 -3.58108108 13.51351351 1.00000000
3.27397260 -4.19178082 13.69863014 1.00000000
3.83561644 -5.16438356 13.69863014 1.00000000
5.24324324 -4.67567568 13.51351351 1.00000000
4.68918919 -3.58108108 13.51351351 1.00000000
3.22972973 -3.98648649 13.51351351 1.00000000
3.64383562 -5.16438356 13.69863014 1.00000000
5.24324324 -4.81081081 13.51351351 1.00000000
4.87837838 -3.58108108 13.51351351 1.00000000
3.22972973 -3.85135135 13.51351351 1.00000000
3.46575342 -5.16438356 13.69863014 1.00000000
5.31506849 -5.02739726 13.69863014 1.00000000
5.06756757 -3.58108108 13.51351351 1.00000000
3.22972973 -3.71621622 13.51351351 1.00000000
-2.90789474 1.94736842 13.15789474 1.00000000
-0.80263158 1.94736842 13.15789474 1.00000000
-0.80263158 3.47368421 13.15789474 1.00000000
-2.90789474 3.47368421 13.15789474 1.00000000
-0.98684211 1.94736842 13.15789474 1.00000000
-0.80263158 3.32894737 13.15789474 1.00000000
-2.72368421 3.47368421 13.15789474 1.00000000
-2.87012987 2.06493506 12.98701299 1.00000000
-1.18421053 1.94736842 13.15789474 1.00000000
-0.80263158 3.19736842 13.15789474 1.00000000
-2.52631579 3.47368421 13.15789474 1.00000000
-2.90789474 2.22368421 13.15789474 1.00000000
-1.38157895 1.94736842 13.15789474 1.00000000
-0.80263158 3.05263158 13.15789474 1.00000000
-2.32894737 3.47368421 13.15789474 1.00000000
-2.90789474 2.36842105 13.15789474 1.00000000
-1.56578947 1.94736842 13.15789474 1.00000000
-0.80263158 2.92105263 13.15789474 1.00000000
-2.14473684 3.47368421 13.15789474 1.00000000
-2.90789474 2.50000000 13.15789474 1.00000000
-1.76315789 1.94736842 13.15789474 1.00000000
-0.80263158 2.77631579 13.15789474 1.00000000
-1.94736842 3.47368421 13.15789474 1.00000000
-2.90789474 2.64473684 13.15789474 1.00000000
-1.94736842 1.94736842 13.15789474 1.00000000
-0.80263158 2.64473684 13.15789474 1.00000000
-1.76315789 3.47368421 13.15789474 1.00000000
-2.90789474 2.77631579 13.15789474 1.00000000
-2.14473684 1.94736842 13.15789474 1.00000000
-0.80263158 2.50000000 13.15789474 1.00000000
-1.56578947 3.47368421 13.15789474 1.00000000
-2.90789474 2.92105263 13.15789474 1.00000000
-2.32894737 1.94736842 13.15789474 1.00000000
-0.80263158 2.36842105 13.15789474 1.00000000
-1.38157895 3.47368421 13.15789474 1.00000000
-2.90789474 3.05263158 13.15789474 1.00000000
-2.52631579 1.94736842 13.15789474 1.00000000
-0.80263158 2.22368421 13.15789474 1.00000000
-1.18421053 3.47368421 13.15789474 1.00000000
-2.90789474 3.19736842 13.15789474 1.00000000
-2.72368421 1.94736842 13.15789474 1.00000000
-0.79220779 2.06493506 12.98701299 1.00000000
-0.98684211 3.47368421 13.15789474 1.00000000
-2.90789474 3.32894737 13.15789474 1.00000000
1.32051282 -4.29487179 12.82051282 1.00000000
3.38461538 -4.29487179 12.82051282 1.00000000
3.38461538 -3.07692308 12.82051282 1.00000000
1.32051282 -3.07692308 12.82051282 1.00000000
3.19230769 -4.29487179 12.82051282 1.00000000
3.42857143 -3.23376623 12.98701299 1.00000000
1.51282051 -3.07692308 12.82051282 1.00000000
1.33766234 -4.24675325 12.98701299 1.00000000
3.01282051 -4.29487179 12.82051282 1.00000000
3.42857143 -3.35064935 12.98701299 1.00000000
1.70512821 -3.07692308 12.82051282 1.00000000
1.33766234 -4.12987013 12.98701299 1.00000000
2.82051282 -4.29487179 12.82051282 1.00000000
3.38461538 -3.41025641 12.82051282 1.00000000
1.88461538 -3.07692308 12.82051282 1.00000000
1.32051282 -3.96153846 12.82051282 1.00000000
2.62820513 -4.29487179 12.82051282 1.00000000
3.42857143 -3.57142857 12.98701299 1.00000000
2.07692308 -3.07692308 12.82051282 1.00000000
1.33766234 -3.90909091 12.98701299 1.00000000
2.44871795 -4.29487179 12.82051282 1.00000000
3.42857143 -3.68831169 12.98701299 1.00000000
2.25641026 -3.07692308 12.82051282 1.00000000
1.32051282 -3.74358974 12.82051282 1.00000000
2.25641026 -4.29487179 12.82051282 1.00000000
3.38461538 -3.74358974 12.82051282 1.00000000
2.44871795 -3.07692308 12.82051282 1.00000000
1.33766234 -3.68831169 12.98701299 1.00000000
2.07692308 -4.29487179 12.82051282 1.00000000
3.42857143 -3.90909091 12.98701299 1.00000000
2.62820513 -3.07692308 12.82051282 1.00000000
1.33766234 -3.57142857 12.98701299 1.00000000
1.88461538 -4.29487179 12.82051282 1.00000000
3.38461538 -3.96153846 12.82051282 1.00000000
2.82051282 -3.07692308 12.82051282 1.00000000
1.32051282 -3.41025641 12.82051282 1.00000000
1.70512821 -4.29487179 12.82051282 1.00000000
3.42857143 -4.12987013 12.98701299 1.00000000
3.01282051 -3.07692308 12.82051282 1.00000000
1.33766234 -3.35064935 12.98701299 1.00000000
1.51282051 -4.29487179 12.82051282 1.00000000
3.42857143 -4.24675325 12.98701299 1.00000000
3.19230769 -3.07692308 12.82051282 1.00000000
1.33766234 -3.23376623 12.98701299 1.00000000
-0.52380952 3.39285714 11.90476190 1.00000000
1.03571429 3.39285714 11.90476190 1.00000000
1.04819277 5.54216867 12.04819277 1.00000000
-0.53012048 5.54216867 12.04819277 1.00000000
0.89285714 3.39285714 11.90476190 1.00000000
1.04819277 5.34939759 12.04819277 1.00000000
-0.38554217 5.54216867 12.04819277 1.00000000
-0.52380952 3.58333333 11.90476190 1.00000000
0.75000000 3.39285714 11.90476190 1.00000000
1.04819277 5.15662651 12.04819277 1.00000000
-0.25301205 5.54216867 12.04819277 1.00000000
-0.52380952 3.77380952 11.90476190 1.00000000
0.60714286 3.39285714 11.90476190 1.00000000
1.04819277 4.96385542 12.04819277 1.00000000
-0.10843373 5.54216867 12.04819277 1.00000000
-0.52380952 3.96428571 11.90476190 1.00000000
0.46428571 3.39285714 11.90476190 1.00000000
1.04819277 4.77108434 12.04819277 1.00000000
0.03614458 5.54216867 12.04819277 1.00000000
-0.53012048 4.19277108 12.04819277 1.00000000
0.32142857 3.39285714 11.90476190 1.00000000
1.04819277 4.57831325 12.04819277 1.00000000
0.18072289 5.54216867 12.04819277 1.00000000
-0.53012048 4.38554217 12.04819277 1.00000000
0.17857143 3.39285714 11.90476190 1.00000000
1.04819277 4.38554217 12.04819277 1.00000000
0.32530120 5.54216867 12.04819277 1.00000000
-0.53012048 4.57831325 12.04819277 1.00000000
0.03571429 3.39285714 11.90476190 1.00000000
1.04819277 4.19277108 12.04819277 1.00000000
0.46987952 5.54216867 12.04819277 1.00000000
-0.53012048 4.77108434 12.04819277 1.00000000
-0.10714286 3.39285714 11.90476190 1.00000000
1.03571429 3.96428571 11.90476190 1.00000000
0.61445783 5.54216867 12.04819277 1.00000000
-0.53012048 4.96385542 12.04819277 1.00000000
-0.25000000 3.39285714 11.90476190 1.00000000
1.03571429 3.77380952 11.90476190 1.00000000
0.75903614 5.54216867 12.04819277 1.00000000
-0.53012048 5.15662651 12.04819277 1.00000000
-0.38095238 3.39285714 11.90476190 1.00000000
1.03571429 3.58333333 11.90476190 1.00000000
0.90361446 5.54216867 12.04819277 1.00000000
-0.53012048 5.34939759 12.04819277 1.00000000
4.01190476 -3.48809524 11.90476190 1.00000000
6.05952381 -3.48809524 11.90476190 1.00000000
6.05952381 -2.15476190 11.90476190 1.00000000
4.01190476 -2.15476190 11.90476190 1.00000000
5.88095238 -3.48809524 11.90476190 1.00000000
5.98823529 -2.24705882 11.76470588 1.00000000
4.20238095 -2.15476190 11.90476190 1.00000000
3.96470588 -3.31764706 11.76470588 1.00000000
5.69047619 -3.48809524 11.90476190 1.00000000
5.98823529 -2.36470588 11.76470588 1.00000000
4.38095238 -2.15476190 11.90476190 1.00000000
3.96470588 -3.20000000 11.76470588 1.00000000
5.50000000 -3.48809524 11.90476190 1.00000000
5.98823529 -2.48235294 11.76470588 1.00000000
4.57142857 -2.15476190 11.90476190 1.00000000
3.96470588 -3.08235294 11.76470588 1.00000000
5.32142857 -3.48809524 11.90476190 1.00000000
5.98823529 -2.60000000 11.76470588 1.00000000
4.76190476 -2.15476190 11.90476190 1.00000000
3.96470588 -2.96470588 11.76470588 1.00000000
5.13095238 -3.48809524 11.90476190 1.00000000
6.05952381 -2.76190476 11.90476190 1.00000000
4.94047619 -2.15476190 11.90476190 1.00000000
4.01190476 -2.88095238 11.90476190 1.00000000
4.94047619 -3.48809524 11.90476190 1.00000000
6.05952381 -2.88095238 11.90476190 1.00000000
5.13095238 -2.15476190 11.90476190 1.00000000
4.01190476 -2.76190476 11.90476190 1.00000000
4.76190476 -3.48809524 11.90476190 1.00000000
5.98823529 -2.96470588 11.76470588 1.00000000
5.32142857 -2.15476190 11.90476190 1.00000000
3.96470588 -2.60000000 11.76470588 1.00000000
4.57142857 -3.48809524 11.90476190 1.00000000
5.98823529 -3.08235294 11.76470588 1.00000000
5.50000000 -2.15476190 11.90476190 1.00000000
3.96470588 -2.48235294 11.76470588 1.00000000
4.38095238 -3.48809524 11.90476190 1.00000000
5.98823529 -3.20000000 11.76470588 1.00000000
5.69047619 -2.15476190 11.90476190 1.00000000
3.96470588 -2.36470588 11.76470588 1.00000000
4.20238095 -3.48809524 11.90476190 1.00000000
5.98823529 -3.31764706 11.76470588 1.00000000
5.88095238 -2.15476190 11.90476190 1.00000000
3.96470588 -2.24705882 11.76470588 1.00000000
-2.65517241 0.50574713 11.49425287 1.00000000
-1.02298851 0.50574713 11.49425287 1.00000000
-1.01136364 2.65909091 11.36363636 1.00000000
-2.62500000 2.65909091 11.36363636 1.00000000
-1.17241379 0.50574713 11.49425287 1.00000000
-1.01136364 2.46590909 11.36363636 1.00000000
-2.47727273 2.65909091 11.36363636 1.00000000
-2.62500000 0.70454545 11.36363636 1.00000000
-1.32183908 0.50574713 11.49425287 1.00000000
-1.02298851 2.28735632 11.49425287 1.00000000
-2.32954545 2.65909091 11.36363636 1.00000000
-2.62500000 0.89772727 11.36363636 1.00000000
-1.47126437 0.50574713 11.49425287 1.00000000
-1.01136364 2.06818182 11.36363636 1.00000000
-2.18181818 2.65909091 11.36363636 1.00000000
-2.62500000 1.09090909 11.36363636 1.00000000
-1.62068966 0.50574713 11.49425287 1.00000000
-1.01136364 1.87500000 11.36363636 1.00000000
-2.03409091 2.65909091 11.36363636 1.00000000
-2.65517241 1.29885057 11.49425287 1.00000000
-1.77011494 0.50574713 11.49425287 1.00000000
-1.01136364 1.68181818 11.36363636 1.00000000
-1.89772727 2.65909091 11.36363636 1.00000000
-2.65517241 1.49425287 11.49425287 1.00000000
-1.91954023 0.50574713 11.49425287 1.00000000
-1.02298851 1.49425287 11.49425287 1.00000000
-1.75000000 2.65909091 11.36363636 1.00000000
-2.62500000 1.68181818 11.36363636 1.00000000
-2.05747126 0.50574713 11.49425287 1.00000000
-1.02298851 1.29885057 11.49425287 1.00000000
-1.60227273 2.65909091 11.36363636 1.00000000
-2.62500000 1.87500000 11.36363636 1.00000000
-2.20689655 0.50574713 11.49425287 1.00000000
-1.01136364 1.09090909 11.36363636 1.00000000
-1.45454545 2.65909091 11.36363636 1.00000000
-2.62500000 2.06818182 11.36363636 1.00000000
-2.35632184 0.50574713 11.49425287 1.00000000
-1.01136364 0.89772727 11.36363636 1.00000000
-1.30681818 2.65909091 11.36363636 1.00000000
-2.65517241 2.28735632 11.49425287 1.00000000
-2.50574713 0.50574713 11.49425287 1.00000000
-1.01136364 0.70454545 11.36363636 1.00000000
-1.15909091 2.65909091 11.36363636 1.00000000
-2.62500000 2.46590909 11.36363636 1.00000000
-4.20430108 -4.20430108 10.75268817 1.00000000
-1.98924731 -4.20430108 10.75268817 1.00000000
-1.94736842 -1.94736842 10.52631579 1.00000000
-4.11578947 -1.94736842 10.52631579 1.00000000
-2.19354839 -4.20430108 10.75268817 1.00000000
-1.96808511 -2.17021277 10.63829787 1.00000000
-3.91578947 -1.94736842 10.52631579 1.00000000
-4.15957447 -3.95744681 10.63829787 1.00000000
-2.39784946 -4.20430108 10.75268817 1.00000000
-1.96808511 -2.37234043 10.63829787 1.00000000
-3.71578947 -1.94736842 10.52631579 1.00000000
-4.11578947 -3.71578947 10.52631579 1.00000000
-2.59139785 -4.20430108 10.75268817 1.00000000
-1.94736842 -2.53684211 10.52631579 1.00000000
-3.52631579 -1.94736842 10.52631579 1.00000000
-4.15957447 -3.56382979 10.63829787 1.00000000
-2.79569892 -4.20430108 10.75268817 1.00000000
-1.96808511 -2.76595745 10.63829787 1.00000000
-3.32631579 -1.94736842 10.52631579 1.00000000
-4.15957447 -3.36170213 10.63829787 1.00000000
-3.00000000 -4.20430108 10.75268817 1.00000000
-1.96808511 -2.96808511 10.63829787 1.00000000
-3.12631579 -1.94736842 10.52631579 1.00000000
-4.11578947 -3.12631579 10.52631579 1.00000000
-3.19354839 -4.20430108 10.75268817 1.00000000
-1.94736842 -3.12631579 10.52631579 1.00000000
-2.93684211 -1.94736842 10.52631579 1.00000000
-4.15957447 -2.96808511 10.63829787 1.00000000
-3.39784946 -4.20430108 10.75268817 1.00000000
-1.96808511 -3.36170213 10.63829787 1.00000000
-2.73684211 -1.94736842 10.52631579 1.00000000
-4.15957447 -2.76595745 10.63829787 1.00000000
-3.60215054 -4.20430108 10.75268817 1.00000000
-1.96808511 -3.56382979 10.63829787 1.00000000
-2.53684211 -1.94736842 10.52631579 1.00000000
-4.11578947 -2.53684211 10.52631579 1.00000000
-3.79569892 -4.20430108 10.75268817 1.00000000
-1.94736842 -3.71578947 10.52631579 1.00000000
-2.34736842 -1.94736842 10.52631579 1.00000000
-4.15957447 -2.37234043 10.63829787 1.00000000
-4.00000000 -4.20430108 10.75268817 1.00000000
-1.96808511 -3.95744681 10.63829787 1.00000000
-2.14736842 -1.94736842 10.52631579 1.00000000
-4.15957447 -2.17021277 10.63829787 1.00000000
-4.97894737 -3.68421053 10.52631579 1.00000000
-2.89473684 -3.68421053 10.52631579 1.00000000
-2.86458333 -2.16666667 10.41666667 1.00000000
-4.92708333 -2.16666667 10.41666667 1.00000000
-3.08421053 -3.68421053 10.52631579 1.00000000
-2.89473684 -2.32631579 10.52631579 1.00000000
-4.73958333 -2.16666667 10.41666667 1.00000000
-4.97894737 -3.54736842 10.52631579 1.00000000
-3.27368421 -3.68421053 10.52631579 1.00000000
-2.89473684 -2.46315789 10.52631579 1.00000000
-4.55208333 -2.16666667 10.41666667 1.00000000
-4.97894737 -3.41052632 10.52631579 1.00000000
-3.46315789 -3.68421053 10.52631579 1.00000000
-2.89473684 -2.60000000 10.52631579 1.00000000
-4.36458333 -2.16666667 10.41666667 1.00000000
-4.92708333 -3.23958333 10.41666667 1.00000000
-3.65263158 -3.68421053 10.52631579 1.00000000
-2.86458333 -2.69791667 10.41666667 1.00000000
-4.17708333 -2.16666667 10.41666667 1.00000000
-4.92708333 -3.10416667 10.41666667 1.00000000
-3.84210526 -3.68421053 10.52631579 1.00000000
-2.86458333 -2.83333333 10.41666667 1.00000000
-3.98958333 -2.16666667 10.41666667 1.00000000
-4.92708333 -2.96875000 10.41666667 1.00000000
-4.03157895 -3.68421053 10.52631579 1.00000000
-2.86458333 -2.96875000 10.41666667 1.00000000
-3.80208333 -2.16666667 10.41666667 1.00000000
-4.92708333 -2.83333333 10.41666667 1.00000000
-4.22105263 -3.68421053 10.52631579 1.00000000
-2.86458333 -3.10416667 10.41666667 1.00000000
-3.61458333 -2.16666667 10.41666667 1.00000000
-4.92708333 -2.69791667 10.41666667 1.00000000
-4.41052632 -3.68421053 10.52631579 1.00000000
-2.86458333 -3.23958333 10.41666667 1.00000000
-3.42708333 -2.16666667 10.41666667 1.00000000
-4.97894737 -2.60000000 10.52631579 1.00000000
-4.60000000 -3.68421053 10.52631579 1.00000000
-2.89473684 -3.41052632 10.52631579 1.00000000
-3.23958333 -2.16666667 10.41666667 1.00000000
-4.97894737 -2.46315789 10.52631579 1.00000000
-4.78947368 -3.68421053 10.52631579 1.00000000
-2.89473684 -3.54736842 10.52631579 1.00000000
-3.05208333 -2.16666667 10.41666667 1.00000000
-4.97894737 -2.32631579 10.52631579 1.00000000
-4.52577320 -0.06185567 10.30927835 1.00000000
-2.89690722 -0.06185567 10.30927835 1.00000000
-2.89690722 2.11340206 10.30927835 1.00000000
-4.52577320 2.11340206 10.30927835 1.00000000
-3.04123711 -0.06185567 10.30927835 1.00000000
-2.89690722 1.91752577 10.30927835 1.00000000
-4.38144330 2.11340206 10.30927835 1.00000000
-4.52577320 0.13402062 10.30927835 1.00000000
-3.19587629 -0.06185567 10.30927835 1.00000000
-2.92708333 1.72916667 10.41666667 1.00000000
-4.22680412 2.11340206 10.30927835 1.00000000
-4.57291667 0.33333333 10.41666667 1.00000000
-3.34020619 -0.06185567 10.30927835 1.00000000
-2.92708333 1.53125000 10.41666667 1.00000000
-4.08247423 2.11340206 10.30927835 1.00000000
-4.57291667 0.53125000 10.41666667 1.00000000
-3.48453608 -0.06185567 10.30927835 1.00000000
-2.89690722 1.31958763 10.30927835 1.00000000
-3.92783505 2.11340206 10.30927835 1.00000000
-4.52577320 0.73195876 10.30927835 1.00000000
-3.63917526 -0.06185567 10.30927835 1.00000000
-2.89690722 1.12371134 10.30927835 1.00000000
-3.78350515 2.11340206 10.30927835 1.00000000
-4.52577320 0.92783505 10.30927835 1.00000000
-3.78350515 -0.06185567 10.30927835 1.00000000
-2.89690722 0.92783505 10.30927835 1.00000000
-3.63917526 2.11340206 10.30927835 1.00000000
-4.52577320 1.12371134 10.30927835 1.00000000
-3.92783505 -0.06185567 10.30927835 1.00000000
-2.89690722 0.73195876 10.30927835 1.00000000
-3.48453608 2.11340206 10.30927835 1.00000000
-4.52577320 1.31958763 10.30927835 1.00000000
-4.08247423 -0.06185567 10.30927835 1.00000000
-2.92708333 0.53125000 10.41666667 1.00000000
-3.34020619 2.11340206 10.30927835 1.00000000
-4.57291667 1.53125000 10.41666667 1.00000000
-4.22680412 -0.06185567 10.30927835 1.00000000
-2.92708333 0.33333333 10.41666667 1.00000000
-3.19587629 2.11340206 10.30927835 1.00000000
-4.57291667 1.72916667 10.41666667 1.00000000
-4.38144330 -0.06185567 10.30927835 1.00000000
-2.89690722 0.13402062 10.30927835 1.00000000
-3.04123711 2.11340206 10.30927835 1.00000000
-4.52577320 1.91752577 10.30927835 1.00000000
1.20408163 2.48979592 10.20408163 1.00000000
3.39795918 2.48979592 10.20408163 1.00000000
3.39795918 3.89795918 10.20408163 1.00000000
1.20408163 3.89795918 10.20408163 1.00000000
3.20408163 2.48979592 10.20408163 1.00000000
3.39795918 3.77551020 10.20408163 1.00000000
1.40816327 3.89795918 10.20408163 1.00000000
1.20408163 2.62244898 10.20408163 1.00000000
3.00000000 2.48979592 10.20408163 1.00000000
3.39795918 3.64285714 10.20408163 1.00000000
1.60204082 3.89795918 10.20408163 1.00000000
1.20408163 2.74489796 10.20408163 1.00000000
2.80612245 2.48979592 10.20408163 1.00000000
3.39795918 3.52040816 10.20408163 1.00000000
1.80612245 3.89795918 10.20408163 1.00000000
1.20408163 2.87755102 10.20408163 1.00000000
2.60204082 2.48979592 10.20408163 1.00000000
3.39795918 3.38775510 10.20408163 1.00000000
2.01020408 3.89795918 10.20408163 1.00000000
1.20408163 3.00000000 10.20408163 1.00000000
2.40816327 2.48979592 10.20408163 1.00000000
3.39795918 3.26530612 10.20408163 1.00000000
2.20408163 3.89795918 10.20408163 1.00000000
1.20408163 3.13265306 10.20408163 1.00000000
2.20408163 2.48979592 10.20408163 1.00000000
3.39795918 3.13265306 10.20408163 1.00000000
2.40816327 3.89795918 10.20408163 1.00000000
1.20408163 3.26530612 10.20408163 1.00000000
2.01020408 2.48979592 10.20408163 1.00000000
3.39795918 3.00000000 10.20408163 1.00000000
2.60204082 3.89795918 10.20408163 1.00000000
1.20408163 3.38775510 10.20408163 1.00000000
1.80612245 2.48979592 10.20408163 1.00000000
3.39795918 2.87755102 10.20408163 1.00000000
2.80612245 3.89795918 10.20408163 1.00000000
1.20408163 3.52040816 10.20408163 1.00000000
1.60204082 2.48979592 10.20408163 1.00000000
3.39795918 2.74489796 10.20408163 1.00000000
3.00000000 3.89795918 10.20408163 1.00000000
1.20408163 3.64285714 10.20408163 1.00000000
1.40816327 2.48979592 10.20408163 1.00000000
3.39795918 2.62244898 10.20408163 1.00000000
3.20408163 3.89795918 10.20408163 1.00000000
1.20408163 3.77551020 10.20408163 1.00000000
