-0.55219809 -0.94108673 5.63510256 1.00000000
-0.04835258 -0.95506966 5.89584005 1.00000000
-0.04719007 -0.55417962 5.77354101 1.00000000
-0.55645426 -0.56150515 5.67491591 1.00000000
-0.09369385 -0.93042872 5.74447523 1.00000000
-0.04772452 -0.59483609 5.83251521 1.00000000
-0.50612564 -0.56253572 5.68425291 1.00000000
-0.55982431 -0.91815844 5.70546146 1.00000000
-0.14281402 -0.96576857 5.92549570 1.00000000
-0.04821099 -0.63562103 5.88612282 1.00000000
-0.46291469 -0.56614670 5.71718584 1.00000000
-0.55670482 -0.87965397 5.67675263 1.00000000
-0.18576561 -0.94095296 5.77391646 1.00000000
-0.04865571 -0.67651716 5.93506042 1.00000000
-0.41650319 -0.56099593 5.71771949 1.00000000
-0.56480570 -0.85620391 5.75148926 1.00000000
-0.23339496 -0.94892005 5.78885309 1.00000000
-0.04727422 -0.69356774 5.78028195 1.00000000
-0.37192600 -0.56385800 5.74404531 1.00000000
-0.54786484 -0.79487219 5.59536119 1.00000000
-0.27923038 -0.95277469 5.81020575 1.00000000
-0.04770434 -0.73421042 5.82759220 1.00000000
-0.32711225 -0.56977376 5.82077732 1.00000000
-0.55583700 -0.77076713 5.66891219 1.00000000
-0.32723098 -0.96015710 5.82164723 1.00000000
-0.04810309 -0.77495780 5.87139321 1.00000000
-0.28184129 -0.57409149 5.86071399 1.00000000
-0.55248724 -0.73298380 5.63807876 1.00000000
-0.37161570 -0.94745116 5.73881660 1.00000000
-0.04847383 -0.81579846 5.91206018 1.00000000
-0.22364865 -0.54006443 5.57110325 1.00000000
-0.56088242 -0.70812087 5.71553163 1.00000000
-0.41925662 -0.95494185 5.75114425 1.00000000
-0.04881944 -0.85672256 5.94991691 1.00000000
-0.18663891 -0.56229500 5.80035644 1.00000000
-0.55744440 -0.67034456 5.68388436 1.00000000
-0.46465421 -0.95214290 5.73592943 1.00000000
-0.04769615 -0.87354491 5.82401006 1.00000000
-0.14013051 -0.56510759 5.82658582 1.00000000
-0.56618988 -0.64451410 5.76456895 1.00000000
-0.51177543 -0.95830328 5.74099107 1.00000000
-0.04803441 -0.91426709 5.86104908 1.00000000
-0.09378448 -0.55200816 5.75311751 1.00000000
-0.54795086 -0.58809738 5.59646202 1.00000000
-1.90532980 1.34115092 5.16175694 1.00000000
-1.40070956 1.34310550 5.34852772 1.00000000
-1.39962769 1.68964234 5.34499215 1.00000000
-1.90960864 1.69529958 5.17221868 1.00000000
-1.44292069 1.34057329 5.32224618 1.00000000
-1.39572688 1.65376713 5.33161281 1.00000000
-1.84885116 1.68095551 5.15286434 1.00000000
-1.90029983 1.36965945 5.14960015 1.00000000
-1.50135723 1.35070920 5.34104991 1.00000000
-1.40222316 1.62798658 5.35385225 1.00000000
-1.80953025 1.68675087 5.18728022 1.00000000
-1.89521552 1.39795769 5.13731162 1.00000000
-1.53014675 1.33430849 5.27531758 1.00000000
-1.39829476 1.59220307 5.34037852 1.00000000
-1.77013762 1.69313189 5.22359603 1.00000000
-1.89935026 1.43097146 5.14732291 1.00000000
-1.58849814 1.34444844 5.29420164 1.00000000
-1.39436728 1.55659582 5.32690795 1.00000000
-1.71256313 1.68238783 5.20697106 1.00000000
-1.89420189 1.45903854 5.13487932 1.00000000
-1.63690886 1.34824580 5.28314731 1.00000000
-1.41396609 1.54742671 5.39403585 1.00000000
-1.67290566 1.68943539 5.24547215 1.00000000
-1.91008950 1.50400324 5.17332076 1.00000000
-1.67771326 1.34607780 5.25882785 1.00000000
-1.40997516 1.51157778 5.38034815 1.00000000
-1.62994652 1.69103427 5.26315794 1.00000000
-1.90488973 1.53203683 5.16075329 1.00000000
-1.72577396 1.34622885 5.24275112 1.00000000
-1.40598986 1.47591278 5.36667975 1.00000000
-1.58240582 1.68877999 5.27615559 1.00000000
-1.89966355 1.55987278 5.14812163 1.00000000
-1.77210424 1.34430511 5.22866178 1.00000000
-1.40201471 1.44043598 5.35304612 1.00000000
-1.53504332 1.68699710 5.29058571 1.00000000
-1.90393267 1.59341500 5.15845799 1.00000000
-1.81038062 1.33978627 5.18933946 1.00000000
-1.40867260 1.41364476 5.37583835 1.00000000
-1.49135551 1.68884253 5.30929323 1.00000000
-1.89866593 1.62102976 5.14572809 1.00000000
-1.85799455 1.34046849 5.17550040 1.00000000
-1.40468019 1.37827564 5.36214575 1.00000000
-1.44401348 1.68778694 5.32602291 1.00000000
-1.89339197 1.64846003 5.13298048 1.00000000
-0.88401768 -0.69297216 5.20398083 1.00000000
-0.50269366 -0.68265402 5.29175810 1.00000000
-0.50589303 -0.16960711 5.32274077 1.00000000
-0.89001279 -0.17332118 5.23596369 1.00000000
-0.54583499 -0.69695648 5.35744445 1.00000000
-0.50701770 -0.21781236 5.33328306 1.00000000
-0.84221328 -0.17079443 5.16728310 1.00000000
-0.89253486 -0.65054194 5.24885723 1.00000000
-0.58095310 -0.69308442 5.33076838 1.00000000
-0.50825151 -0.26628540 5.34485516 1.00000000
-0.81523914 -0.17077428 5.22382569 1.00000000
-0.89135075 -0.60275979 5.24266163 1.00000000
-0.59858990 -0.67750095 5.20872919 1.00000000
-0.50952724 -0.31501563 5.35682242 1.00000000
-0.78470960 -0.17225840 5.26443967 1.00000000
-0.89023698 -0.55514528 5.23683618 1.00000000
-0.65281302 -0.70065468 5.34963423 1.00000000
-0.51079175 -0.36397710 5.36868350 1.00000000
-0.73704362 -0.16947578 5.18778934 1.00000000
-0.88921721 -0.50770079 5.23150545 1.00000000
-0.67671523 -0.68818682 5.24965177 1.00000000
-0.49942363 -0.40036466 5.26132226 1.00000000
-0.70641177 -0.17101756 5.22998652 1.00000000
-0.88642020 -0.45472609 5.21682194 1.00000000
-0.70349248 -0.68239293 5.21011235 1.00000000
-0.50028093 -0.44823770 5.26934152 1.00000000
-0.67932230 -0.16978440 5.26833124 1.00000000
-0.88580454 -0.40777933 5.21361819 1.00000000
-0.73940665 -0.68592222 5.20214759 1.00000000
-0.50120955 -0.49634160 5.27803365 1.00000000
-0.64847602 -0.17158589 5.31834656 1.00000000
-0.88538555 -0.36097667 5.21144978 1.00000000
-0.78179945 -0.69244781 5.24646767 1.00000000
-0.50217041 -0.54465416 5.28702965 1.00000000
-0.60052102 -0.16822034 5.22439503 1.00000000
-0.89148007 -0.31440607 5.24357533 1.00000000
-0.80538152 -0.68279206 5.16685977 1.00000000
-0.50313509 -0.59315100 5.29606138 1.00000000
-0.57872684 -0.17141045 5.31312242 1.00000000
-0.89077599 -0.26726275 5.23990637 1.00000000
-0.85054629 -0.69214320 5.21251853 1.00000000
-0.51440762 -0.65274923 5.40237261 1.00000000
-0.54771920 -0.17363056 5.37479391 1.00000000
-0.89027893 -0.22024381 5.23732720 1.00000000
-1.71869545 1.46042545 4.73116212 1.00000000
-1.24808868 1.47132216 4.93558688 1.00000000
-1.24619401 1.85393765 4.92913067 1.00000000
-1.70785083 1.83027182 4.70495490 1.00000000
-1.27463560 1.44912710 4.86378913 1.00000000
-1.23787718 1.80439529 4.89991744 1.00000000
-1.67334945 1.84067083 4.74235911 1.00000000
-1.71009837 1.48815979 4.71030195 1.00000000
-1.32029455 1.45340108 4.85778858 1.00000000
-1.23963434 1.77220096 4.90606804 1.00000000
-1.63337475 1.84365512 4.76311570 1.00000000
-1.70925393 1.52059590 4.70826239 1.00000000
-1.36039938 1.44981876 4.82870910 1.00000000
-1.24142324 1.73995278 4.91232997 1.00000000
-1.58720545 1.84490941 4.78005885 1.00000000
-1.71833087 1.56438977 4.73031032 1.00000000
-1.40864662 1.45334756 4.82633862 1.00000000
-1.24324340 1.70764743 4.91870159 1.00000000
-1.53692274 1.83417620 4.77508270 1.00000000
-1.70965498 1.59152201 4.70925852 1.00000000
-1.44844825 1.45037421 4.79938988 1.00000000
-1.24509420 1.67528141 4.92518068 1.00000000
-1.49658084 1.83792434 4.79795366 1.00000000
-1.70879942 1.62388837 4.70719194 1.00000000
-1.49631881 1.45388239 4.79706216 1.00000000
-1.24697481 1.64285106 4.93176431 1.00000000
-1.45609019 1.84208146 4.82192993 1.00000000
-1.71790073 1.66824831 4.72929931 1.00000000
-1.53589291 1.45148716 4.77211424 1.00000000
-1.24045963 1.60143563 4.90887822 1.00000000
-1.40531168 1.83104700 4.81639031 1.00000000
-1.70919033 1.69481148 4.70816346 1.00000000
-1.58343733 1.45500004 4.76989600 1.00000000
-1.24232614 1.56901594 4.91541244 1.00000000
-1.36443206 1.83559674 4.84154323 1.00000000
-1.70832940 1.72711213 4.70608381 1.00000000
-1.62945233 1.45525729 4.75288428 1.00000000
-1.24422086 1.53652662 4.92204561 1.00000000
-1.32333925 1.84057951 4.86788677 1.00000000
-1.71742012 1.77200469 4.72816572 1.00000000
-1.66887059 1.45377517 4.73103209 1.00000000
-1.24614230 1.50396347 4.92877252 1.00000000
-1.27842550 1.83805717 4.87678286 1.00000000
-1.70871239 1.79803270 4.70703609 1.00000000
-0.82949615 1.34095572 4.91091843 1.00000000
-0.33858112 1.35438276 5.13022495 1.00000000
-0.34109000 1.71989507 5.16496860 1.00000000
-0.83897839 1.71127068 4.96100644 1.00000000
-0.38034540 1.33500370 5.05790140 1.00000000
-0.33489186 1.65649815 5.08100570 1.00000000
-0.79352025 1.70816555 4.96452319 1.00000000
-0.83554344 1.38382253 4.94270649 1.00000000
-0.42700122 1.34453986 5.07460493 1.00000000
-0.33686420 1.63449010 5.10762997 1.00000000
-0.74014432 1.68834427 4.93629778 1.00000000
-0.83190323 1.40826253 4.92361187 1.00000000
-0.47327353 1.34109021 5.04094095 1.00000000
-0.33893234 1.61256555 5.13554989 1.00000000
-0.70074969 1.69754269 4.97693589 1.00000000
-0.83782421 1.45146673 4.95473693 1.00000000
-0.52027429 1.35107744 5.05906460 1.00000000
-0.33624575 1.56548995 5.09911247 1.00000000
-0.65525634 1.69951435 4.99900601 1.00000000
-0.83421831 1.47577486 4.93582242 1.00000000
-0.56694820 1.35457656 5.05551892 1.00000000
-0.33837494 1.54349899 5.12785801 1.00000000
-0.61468520 1.70948706 5.04224330 1.00000000
-0.84001060 1.51928928 4.96627194 1.00000000
-0.61269481 1.35262675 5.02729589 1.00000000
-0.33655420 1.50548505 5.10315017 1.00000000
-0.56301012 1.69826346 5.02468620 1.00000000
-0.82915907 1.53197726 4.90930210 1.00000000
-0.65867202 1.35549437 5.02180435 1.00000000
-0.33877341 1.48347237 5.13311302 1.00000000
-0.52131263 1.70832885 5.06855603 1.00000000
-0.83480877 1.57548036 4.93900305 1.00000000
-0.70224402 1.34663013 4.98602088 1.00000000
-0.33587262 1.43651848 5.09377912 1.00000000
-0.47946867 1.71367689 5.10026485 1.00000000
-0.83141502 1.59952885 4.92120221 1.00000000
-0.74001557 1.33758864 4.93521322 1.00000000
-0.33816153 1.41442877 5.12468433 1.00000000
-0.42782181 1.70291808 5.08391103 1.00000000
-0.83693846 1.64330404 4.95024034 1.00000000
-0.79266550 1.34946781 4.95946562 1.00000000
-0.34057694 1.39242415 5.15730042 1.00000000
-0.38539797 1.70922766 5.11845973 1.00000000
-0.83358025 1.66724424 4.93262606 1.00000000
-1.85115705 0.94328127 4.49283329 1.00000000
-1.46833030 0.93693999 4.61683105 1.00000000
-1.46942752 1.47355555 4.62006419 1.00000000
-1.85212465 1.47865024 4.49502999 1.00000000
-1.51607158 0.94547939 4.63585329 1.00000000
-1.47867414 1.43407838 4.64559587 1.00000000
-1.81945353 1.47983925 4.51354721 1.00000000
-1.85209275 0.99294803 4.49483330 1.00000000
-1.54771319 0.94540491 4.61776793 1.00000000
-1.47081578 1.37745801 4.62386359 1.00000000
-1.79284674 1.48621333 4.54136264 1.00000000
-1.84537965 1.03611726 4.48059012 1.00000000
-1.57087846 0.93813294 4.57887829 1.00000000
-1.47253013 1.33232793 4.62858304 1.00000000
-1.75343821 1.48082068 4.54250612 1.00000000
-1.85232162 1.08746767 4.49534436 1.00000000
-1.61851973 0.94652275 4.59722204 1.00000000
-1.47216525 1.28114474 4.62755570 1.00000000
-1.70712680 1.47126337 4.52766452 1.00000000
-1.85332813 1.13728268 4.49749476 1.00000000
-1.64178479 0.93978560 4.56089889 1.00000000
-1.47384151 1.23582717 4.63216980 1.00000000
-1.68700497 1.48230831 4.57322648 1.00000000
-1.85436402 1.18717040 4.49970755 1.00000000
-1.68946267 0.94810565 4.57890676 1.00000000
-1.47344554 1.18459903 4.63105655 1.00000000
-1.64057092 1.47265659 4.55811158 1.00000000
-1.85542433 1.23712986 4.50197221 1.00000000
-1.70368583 0.93584443 4.51951002 1.00000000
-1.47505920 1.13908228 4.63549755 1.00000000
-1.61594279 1.48296968 4.59097170 1.00000000
-1.85650442 1.28715980 4.50427888 1.00000000
-1.75120803 0.94409511 4.53728658 1.00000000
-1.46746061 1.08433005 4.61448365 1.00000000
-1.57689890 1.47835686 4.59446174 1.00000000
-1.84905011 1.32885586 4.48846176 1.00000000
-1.79886442 0.95226413 4.55457181 1.00000000
-1.46711704 1.03340042 4.61351528 1.00000000
-1.54275249 1.47809158 4.60495059 1.00000000
-1.85005673 1.37871886 4.49061247 1.00000000
-1.81301190 0.94085470 4.49940972 1.00000000
-1.46869811 0.98790392 4.61786641 1.00000000
-1.51585554 1.48329117 4.63546772 1.00000000
-1.85108291 1.42865087 4.49280471 1.00000000
-0.99286289 -1.20844556 4.75478894 1.00000000
-0.62149804 -1.19933372 4.85557067 1.00000000
-0.62594367 -0.68867079 4.88690640 1.00000000
-1.00270448 -0.69525613 4.79673620 1.00000000
-0.65699803 -1.20580485 4.86315405 1.00000000
-0.62029206 -0.72734687 4.84773671 1.00000000
-0.95255638 -0.68105212 4.73586430 1.00000000
-0.99567366 -1.16356200 4.76670525 1.00000000
-0.69248627 -1.21205829 4.86990838 1.00000000
-0.62518867 -0.78077433 4.88157876 1.00000000
-0.92913021 -0.68983556 4.78975395 1.00000000
-0.99053770 -1.11137594 4.74501541 1.00000000
-0.72661100 -1.20937703 4.85352610 1.00000000
-0.63002035 -0.83486001 4.91497036 1.00000000
-0.88776308 -0.68304540 4.77426281 1.00000000
-0.99338393 -1.06637454 4.75708184 1.00000000
-0.75940144 -1.20821346 4.83401434 1.00000000
-0.62445259 -0.87267489 4.87638234 1.00000000
-0.85542618 -0.68413550 4.78095908 1.00000000
-0.99628060 -1.02114728 4.76936172 1.00000000
-0.78511551 -1.19722736 4.78842232 1.00000000
-0.62118136 -0.91740792 4.85368605 1.00000000
-0.82420954 -0.68793302 4.81616376 1.00000000
-0.99114043 -0.96966485 4.74765353 1.00000000
-0.82018899 -1.20336823 4.79497189 1.00000000
-0.62576810 -0.97190774 4.88538149 1.00000000
-0.78970366 -0.68321053 4.81359021 1.00000000
-0.99406573 -0.92429615 4.76005469 1.00000000
-0.86098514 -1.21137361 4.80802347 1.00000000
-0.63022921 -1.02689990 4.91620654 1.00000000
-0.75722704 -0.68460009 4.82221588 1.00000000
-0.99700724 -0.87865646 4.77252454 1.00000000
-0.88621840 -1.20143619 4.76655032 1.00000000
-0.62504435 -1.06368165 4.88027061 1.00000000
-0.74026801 -0.70070071 4.93483326 1.00000000
-0.99198317 -0.82797375 4.75130676 1.00000000
-0.92701217 -1.20947400 4.77974607 1.00000000
-0.62932053 -1.11895111 4.90981501 1.00000000
-0.68320995 -0.67876027 4.81260978 1.00000000
-0.99493836 -0.78216466 4.76383467 1.00000000
-0.95760474 -1.20740189 4.75766686 1.00000000
-0.62621958 -1.16313637 4.88829831 1.00000000
-0.65883779 -0.68689306 4.87575704 1.00000000
-0.99785471 -0.73603873 4.77619843 1.00000000
-0.11725079 -1.36718891 4.88283620 1.00000000
0.36063002 -1.36078085 5.03785446 1.00000000
0.36028330 -1.09284571 5.03295203 1.00000000
-0.11689838 -1.09608053 4.87146134 1.00000000
0.31748220 -1.36407460 5.03379458 1.00000000
0.36153481 -1.12141678 5.04855182 1.00000000
-0.07336252 -1.08692835 4.85252530 1.00000000
-0.11682280 -1.33846053 4.86713277 1.00000000
0.27456355 -1.35771872 4.99163100 1.00000000
0.36275174 -1.15005001 5.06372239 1.00000000
-0.02830915 -1.07861133 4.83675195 1.00000000
-0.11788241 -1.32475620 4.90654461 1.00000000
0.23077430 -1.36590130 5.00368513 1.00000000
0.36393517 -1.17874182 5.07847730 1.00000000
0.01503762 -1.10904709 4.97331451 1.00000000
-0.11744528 -1.29597664 4.89050222 1.00000000
0.18973571 -1.37761341 5.02712368 1.00000000
0.35868285 -1.18383052 5.01328759 1.00000000
0.05903737 -1.10027030 4.95606058 1.00000000
-0.11699548 -1.26723539 4.87398908 1.00000000
0.14117746 -1.34563416 4.91059228 1.00000000
0.35987364 -1.21242451 5.02813362 1.00000000
0.10006538 -1.08982601 4.93196898 1.00000000
-0.11653244 -1.23853423 4.85698436 1.00000000
0.09970593 -1.35244562 4.91836438 1.00000000
0.36103300 -1.24107396 5.04258964 1.00000000
0.14453761 -1.10787866 5.01252533 1.00000000
-0.11766553 -1.22477291 4.89912397 1.00000000
0.05872810 -1.36252499 4.93659999 1.00000000
0.36216194 -1.26977596 5.05666808 1.00000000
0.18857497 -1.09995368 4.99869839 1.00000000
-0.11719160 -1.19601738 4.88171544 1.00000000
0.01471556 -1.35583124 4.89469918 1.00000000
0.36326143 -1.29852776 5.07038112 1.00000000
0.22896365 -1.08788786 4.96795585 1.00000000
-0.11670284 -1.16730418 4.86375637 1.00000000
-0.02882634 -1.36482195 4.90939113 1.00000000
0.36433244 -1.32732680 5.08374060 1.00000000
0.27231631 -1.08015565 4.95462097 1.00000000
-0.11791658 -1.15357857 4.90888869 1.00000000
-0.07366875 -1.35810220 4.86787151 1.00000000
0.35955265 -1.33207047 5.02441614 1.00000000
0.31673428 -1.09483289 5.02259021 1.00000000
-0.11741584 -1.12480713 4.89048531 1.00000000
0.86913084 1.18016323 5.20086190 1.00000000
1.39111343 1.18618174 5.41435247 1.00000000
1.38319328 1.61684982 5.38636381 1.00000000
0.86933908 1.61730776 5.20153008 1.00000000
1.34210790 1.18449827 5.38740098 1.00000000
1.38764466 1.58334486 5.40194863 1.00000000
0.91716173 1.61861225 5.21885400 1.00000000
0.86828058 1.22076698 5.19627509 1.00000000
1.30321367 1.19360095 5.40450369 1.00000000
1.39215649 1.54965793 5.41774479 1.00000000
0.96547714 1.62243956 5.24970972 1.00000000
0.86526891 1.25346632 5.18014142 1.00000000
1.24219052 1.17724738 5.32921560 1.00000000
1.38351570 1.49874939 5.38757346 1.00000000
1.00502822 1.61335174 5.23713925 1.00000000
0.86448506 1.29390520 5.17590977 1.00000000
1.20331788 1.18611749 5.34551043 1.00000000
1.38802666 1.46491606 5.40336680 1.00000000
1.05361594 1.61638749 5.26599257 1.00000000
0.87266963 1.34601382 5.21961134 1.00000000
1.15387189 1.18662578 5.31934209 1.00000000
1.37940607 1.41464830 5.37326533 1.00000000
1.10354799 1.61880905 5.28702443 1.00000000
0.86968013 1.37852382 5.20359645 1.00000000
1.10202246 1.17918566 5.28084557 1.00000000
1.39472217 1.38923957 5.42682613 1.00000000
1.15288505 1.62136922 5.31491374 1.00000000
0.86885961 1.41900619 5.19916872 1.00000000
1.04899240 1.17516572 5.24569357 1.00000000
1.39932951 1.35479101 5.44295660 1.00000000
1.19245153 1.61212652 5.30189419 1.00000000
0.87676335 1.47195538 5.24136791 1.00000000
1.01004821 1.18374943 5.26092301 1.00000000
1.39060357 1.30484053 5.41248716 1.00000000
1.24186438 1.61386659 5.32762979 1.00000000
0.86525982 1.49166638 5.17985032 1.00000000
0.97098027 1.19254832 5.27688365 1.00000000
1.39518348 1.27021570 5.42852201 1.00000000
1.28713441 1.61465814 5.34431962 1.00000000
0.87294340 1.54477921 5.22087250 1.00000000
0.91967412 1.18335051 5.23205948 1.00000000
1.39976549 1.23533626 5.44456426 1.00000000
1.33700602 1.61581863 5.36871001 1.00000000
0.86186914 1.56404968 5.16165010 1.00000000
-0.77784908 0.07149181 4.16003426 1.00000000
-0.46398822 0.07329919 4.33569215 1.00000000
-0.45911394 0.58913540 4.29671684 1.00000000
-0.77708978 0.58644373 4.15688317 1.00000000
-0.49537810 0.07348478 4.34489298 1.00000000
-0.45717514 0.54011984 4.28088354 1.00000000
-0.74649635 0.58628976 4.16564646 1.00000000
-0.77901230 0.12033375 4.16544152 1.00000000
-0.51604137 0.07190538 4.26408502 1.00000000
-0.46150124 0.49662614 4.31601429 1.00000000
-0.71993643 0.58575475 4.18498852 1.00000000
-0.77796075 0.16675921 4.16061604 1.00000000
-0.54737283 0.07213915 4.27574576 1.00000000
-0.45957913 0.44778970 4.30031713 1.00000000
-0.69487130 0.59043852 4.21390989 1.00000000
-0.77931760 0.21213930 4.16691586 1.00000000
-0.56832689 0.07083765 4.20912217 1.00000000
-0.45771133 0.39939341 4.28506219 1.00000000
-0.66461510 0.59120351 4.22861774 1.00000000
-0.77763776 0.25825173 4.15918730 1.00000000
-0.60547823 0.07296860 4.23501254 1.00000000
-0.45598110 0.35148511 4.27092691 1.00000000
-0.63124401 0.58682151 4.21457610 1.00000000
-0.78074341 0.30813245 4.17356962 1.00000000
-0.63686510 0.07320714 4.24661968 1.00000000
-0.46040173 0.30641017 4.30682446 1.00000000
-0.60685096 0.58990686 4.24382130 1.00000000
-0.77866792 0.35394650 4.16401293 1.00000000
-0.65798936 0.07210672 4.19166251 1.00000000
-0.46617813 0.26501823 4.35375320 1.00000000
-0.56908553 0.58147738 4.21449961 1.00000000
-0.77619961 0.39930956 4.15264079 1.00000000
-0.69671624 0.07274653 4.22318239 1.00000000
-0.46436680 0.21674367 4.33895807 1.00000000
-0.54281979 0.58640688 4.24541523 1.00000000
-0.77848707 0.44553383 4.16324099 1.00000000
-0.71791510 0.07177090 4.17443625 1.00000000
-0.46292714 0.16897553 4.32718670 1.00000000
-0.51855140 0.59070783 4.28267362 1.00000000
-0.77573643 0.49041817 4.15056401 1.00000000
-0.73932713 0.07089620 4.13071265 1.00000000
-0.46530073 0.12084002 4.34642883 1.00000000
-0.48357209 0.58422777 4.25535303 1.00000000
-0.77998406 0.54191294 4.17022400 1.00000000
0.59466077 -1.27011879 4.44039320 1.00000000
1.08058709 -1.28442541 4.65537570 1.00000000
1.07624487 -0.89980048 4.63864306 1.00000000
0.59659408 -0.89498751 4.45252541 1.00000000
1.03154549 -1.28049715 4.62393220 1.00000000
1.06835116 -0.92738841 4.60877056 1.00000000
0.65036748 -0.90832497 4.51814555 1.00000000
0.59982539 -1.24809537 4.47399921 1.00000000
0.99970143 -1.29312171 4.65086164 1.00000000
1.07724448 -0.97006683 4.64248127 1.00000000
0.69105329 -0.90562812 4.52389696 1.00000000
0.59814359 -1.20942217 4.46299987 1.00000000
0.95100009 -1.28867746 4.61806122 1.00000000
1.07671373 -1.00221823 4.64049554 1.00000000
0.72826343 -0.89633646 4.50070126 1.00000000
0.59641049 -1.17084638 4.45166655 1.00000000
0.90981883 -1.29207835 4.61583373 1.00000000
1.07824564 -1.04046496 4.64632549 1.00000000
0.77836408 -0.90692113 4.55502150 1.00000000
0.59462558 -1.13237604 4.43999592 1.00000000
0.85349907 -1.27236296 4.54282209 1.00000000
1.07770638 -1.07260478 4.64430750 1.00000000
0.81994897 -0.90456406 4.56250299 1.00000000
0.60016028 -1.10984571 4.47601128 1.00000000
0.81423223 -1.27565038 4.53497233 1.00000000
1.07923631 -1.11098280 4.65013006 1.00000000
0.85796973 -0.89891141 4.56332168 1.00000000
0.59835690 -1.07132737 4.46422037 1.00000000
0.77385990 -1.27881553 4.53229510 1.00000000
1.07868820 -1.14310928 4.64807857 1.00000000
0.90923978 -0.90824542 4.61292267 1.00000000
0.59650048 -1.03292956 4.45208425 1.00000000
0.72764637 -1.27343445 4.49775493 1.00000000
1.07067975 -1.16888904 4.61777027 1.00000000
0.95154600 -0.90573343 4.62006956 1.00000000
0.60238509 -1.00992726 4.49037755 1.00000000
0.68936218 -1.28289510 4.51461822 1.00000000
1.07965055 -1.21371992 4.65177597 1.00000000
0.99419930 -0.90339244 4.62805081 1.00000000
0.60050693 -0.97147117 4.47809981 1.00000000
0.64396472 -1.27726478 4.47965920 1.00000000
1.07166875 -1.23904643 4.62156830 1.00000000
1.03338080 -0.90220837 4.63086179 1.00000000
0.59857586 -0.93315371 4.46547761 1.00000000
-0.81050245 0.49105782 3.86145100 1.00000000
-0.31141414 0.48992761 4.04767061 1.00000000
-0.31179943 0.87546894 4.05268051 1.00000000
-0.80770088 0.87096196 3.85030927 1.00000000
-0.35481068 0.48424256 3.99670741 1.00000000
-0.30850449 0.83152086 4.01576262 1.00000000
-0.75910048 0.86692584 3.85313245 1.00000000
-0.81103297 0.52595166 3.86362447 1.00000000
-0.39723763 0.48344361 3.96653095 1.00000000
-0.30859219 0.79556528 4.01667763 1.00000000
-0.71792162 0.86964881 3.88167449 1.00000000
-0.81160220 0.56091802 3.86595503 1.00000000
-0.43967780 0.47936959 3.92764595 1.00000000
-0.30990849 0.76615493 4.03134044 1.00000000
-0.66942373 0.86640768 3.88774846 1.00000000
-0.81220195 0.59595585 3.86840951 1.00000000
-0.48893636 0.48506451 3.94332461 1.00000000
-0.31005599 0.73015876 4.03292400 1.00000000
-0.62289121 0.86487515 3.89489665 1.00000000
-0.81282484 0.63106330 3.87095793 1.00000000
-0.53150467 0.48232352 3.91414210 1.00000000
-0.31152715 0.70064994 4.04931789 1.00000000
-0.58048068 0.86836507 3.92708214 1.00000000
-0.81346429 0.66623793 3.87357355 1.00000000
-0.58091418 0.48794524 3.92924921 1.00000000
-0.30764840 0.65733139 4.00587417 1.00000000
-0.53610671 0.86768972 3.94347351 1.00000000
-0.80931357 0.69876262 3.85675059 1.00000000
-0.62565545 0.48846290 3.90933635 1.00000000
-0.30773314 0.62142829 4.00675620 1.00000000
-0.48723298 0.86128955 3.93198096 1.00000000
-0.80993803 0.73383084 3.85930535 1.00000000
-0.66352339 0.48240837 3.85824326 1.00000000
-0.30926864 0.59179986 4.02386935 1.00000000
-0.44267231 0.86123032 3.95097713 1.00000000
-0.81057462 0.76896432 3.86190939 1.00000000
-0.71809023 0.48932167 3.88218887 1.00000000
-0.30943161 0.55583119 4.02562581 1.00000000
-0.39785484 0.86171097 3.97232701 1.00000000
-0.81121853 0.80415984 3.86454317 1.00000000
-0.75579957 0.48429569 3.83862505 1.00000000
-0.31116001 0.52600825 4.04489517 1.00000000
-0.35300410 0.86012640 3.97982976 1.00000000
-0.81186561 0.83941404 3.86718985 1.00000000
0.20656583 -1.07997736 4.13760934 1.00000000
0.69154378 -1.07731747 4.30516692 1.00000000
0.70449203 -0.78734072 4.37483653 1.00000000
0.20495206 -0.76848994 4.10885818 1.00000000
0.64823440 -1.07787317 4.29394817 1.00000000
0.69671994 -0.80667025 4.33285884 1.00000000
0.25680344 -0.78832556 4.21508313 1.00000000
0.20606929 -1.04883196 4.12896122 1.00000000
0.60156707 -1.07653868 4.27064878 1.00000000
0.69539022 -0.83141748 4.32569888 1.00000000
0.29773382 -0.78188465 4.20236357 1.00000000
0.20849518 -1.03434237 4.17070224 1.00000000
0.55928334 -1.07778867 4.26202585 1.00000000
0.69594211 -0.86221209 4.32871286 1.00000000
0.33819168 -0.77143105 4.17076546 1.00000000
0.20801459 -1.00314274 4.16232858 1.00000000
0.51859662 -1.08254013 4.25986404 1.00000000
0.69464701 -0.88686695 4.32173989 1.00000000
0.37847438 -0.76538408 4.15956936 1.00000000
0.20751011 -0.97196556 4.15354346 1.00000000
0.47276351 -1.08028893 4.23394047 1.00000000
0.70138894 -0.92415721 4.35820950 1.00000000
0.43621857 -0.78807345 4.28150108 1.00000000
0.20774881 -0.94795769 4.15758138 1.00000000
0.43157895 -1.08654356 4.24250072 1.00000000
0.69395027 -0.94226048 4.31803189 1.00000000
0.47750593 -0.78192881 4.27025967 1.00000000
0.20721099 -0.91680324 4.14822210 1.00000000
0.38255892 -1.07892514 4.19880712 1.00000000
0.70057974 -0.97991293 4.35389432 1.00000000
0.51872188 -0.77608608 4.26034952 1.00000000
0.20664469 -0.88567689 4.13837236 1.00000000
0.33837564 -1.07660632 4.17331046 1.00000000
0.69928745 -1.00454223 4.34693656 1.00000000
0.55980015 -0.77545072 4.26506171 1.00000000
0.20604780 -0.85458168 4.12799576 1.00000000
0.29698591 -1.08644134 4.19391805 1.00000000
0.69980512 -1.03559009 4.34976586 1.00000000
0.60364882 -0.77545416 4.28310605 1.00000000
0.20898749 -0.83988103 4.17858623 1.00000000
0.25334597 -1.08357260 4.16682964 1.00000000
0.69854992 -1.06014223 4.34300845 1.00000000
0.64481430 -0.76978256 4.27396367 1.00000000
0.20841389 -0.80871484 4.16861058 1.00000000
-0.15012160 0.85129188 3.76637448 1.00000000
0.21675541 0.84668952 3.88307514 1.00000000
0.21950024 1.38502218 3.92347832 1.00000000
-0.15057982 1.38281582 3.77802865 1.00000000
0.18612514 0.85355777 3.89661162 1.00000000
0.21933224 1.33711756 3.92104625 1.00000000
-0.11710568 1.37716996 3.78339331 1.00000000
-0.15113297 0.90542205 3.78811113 1.00000000
0.15285695 0.85807045 3.90091628 1.00000000
0.21696469 1.27441650 3.88510196 1.00000000
-0.08372545 1.37821419 3.79676500 1.00000000
-0.15205852 0.95966154 3.80802024 1.00000000
0.11658797 0.85002198 3.86416125 1.00000000
0.21838070 1.23462360 3.90681062 1.00000000
-0.05007220 1.37943515 3.81064507 1.00000000
-0.14973253 0.99235698 3.75858910 1.00000000
0.08479596 0.84902021 3.84184909 1.00000000
0.21815705 1.18675458 3.90352947 1.00000000
-0.01612975 1.38081849 3.82500518 1.00000000
-0.15062150 1.04649617 3.77771851 1.00000000
0.05065107 0.85563029 3.85434562 1.00000000
0.21974974 1.14699791 3.92793307 1.00000000
0.01619467 1.38216340 3.83937660 1.00000000
-0.15144418 1.10072648 3.79543626 1.00000000
0.01624670 0.86241419 3.86740979 1.00000000
0.21956127 1.09910306 3.92518872 1.00000000
0.05073478 1.38350165 3.85383448 1.00000000
-0.15059753 1.14088300 3.77754404 1.00000000
-0.01607719 0.84645748 3.79584019 1.00000000
0.21867695 1.04454487 3.91184778 1.00000000
0.08478965 1.37018372 3.83811276 1.00000000
-0.15022593 1.18755486 3.76979462 1.00000000
-0.05011630 0.85288810 3.80768970 1.00000000
0.21843066 0.99669122 3.90822116 1.00000000
0.11625689 1.37134924 3.85227343 1.00000000
-0.15096511 1.24177555 3.78573369 1.00000000
-0.08441598 0.85946297 3.81999373 1.00000000
0.21816460 0.94885330 3.90429307 1.00000000
0.15139518 1.37279186 3.86720148 1.00000000
-0.15022927 1.28193460 3.77020196 1.00000000
-0.11773838 0.85843040 3.79835830 1.00000000
0.22014603 0.90894597 3.93462702 1.00000000
0.18689681 1.38377696 3.90869710 1.00000000
-0.15091616 1.33616791 3.78502726 1.00000000
0.92856154 -0.86719803 4.12813343 1.00000000
1.40767328 -0.87011037 4.30554365 1.00000000
1.41080835 -0.53858963 4.31368383 1.00000000
0.93088474 -0.53759052 4.13678171 1.00000000
1.35805659 -0.86409018 4.27263916 1.00000000
1.40709232 -0.56875858 4.30383296 1.00000000
0.96085760 -0.53140655 4.10929190 1.00000000
0.92724074 -0.83747728 4.12305152 1.00000000
1.31600727 -0.86469167 4.25911553 1.00000000
1.40757126 -0.59889518 4.30512160 1.00000000
1.01573047 -0.53814833 4.16475337 1.00000000
0.93153843 -0.81116396 4.13949364 1.00000000
1.27537839 -0.86877573 4.25360656 1.00000000
1.40808846 -0.62906941 4.30651183 1.00000000
1.04311243 -0.52845582 4.12410367 1.00000000
0.92843065 -0.77630901 4.12756296 1.00000000
1.23375817 -0.86929729 4.23996806 1.00000000
1.40864115 -0.65928243 4.30799634 1.00000000
1.09816508 -0.53452250 4.17561309 1.00000000
0.92714006 -0.74674660 4.12259692 1.00000000
1.17894287 -0.86057499 4.19635586 1.00000000
1.40922659 -0.68953516 4.30956782 1.00000000
1.14103759 -0.53394427 4.19664387 1.00000000
0.93134525 -0.71994625 4.13868430 1.00000000
1.14403863 -0.86665417 4.20639950 1.00000000
1.40984207 -0.71982830 4.31121909 1.00000000
1.18175282 -0.53354663 4.20479371 1.00000000
0.92294603 -0.68305466 4.10648322 1.00000000
1.09767223 -0.86424966 4.17421445 1.00000000
1.41048492 -0.75016236 4.31294307 1.00000000
1.23323068 -0.53844627 4.23819579 1.00000000
0.92708558 -0.65607128 4.12231938 1.00000000
1.05152450 -0.86281231 4.15298755 1.00000000
1.41115255 -0.78053764 4.31473287 1.00000000
1.27683496 -0.53754009 4.25761759 1.00000000
0.93112686 -0.62875236 4.13777846 1.00000000
1.00884418 -0.86296958 4.14061265 1.00000000
1.41184244 -0.81095428 4.31658178 1.00000000
1.31735017 -0.53665376 4.26269015 1.00000000
0.92313820 -0.59295293 4.10715088 1.00000000
0.96335533 -0.86129750 4.11873178 1.00000000
1.40704105 -0.83978601 4.30384784 1.00000000
1.36124855 -0.53555691 4.28115964 1.00000000
0.92709442 -0.56544821 4.12228438 1.00000000
-0.59400481 0.12735462 3.45299283 1.00000000
-0.21457372 0.12542704 3.57818312 1.00000000
-0.21465626 0.66246308 3.58057583 1.00000000
-0.59361254 0.66617598 3.45148961 1.00000000
-0.24982031 0.12508423 3.56989638 1.00000000
-0.21706689 0.62157316 3.61422274 1.00000000
-0.56287631 0.66782645 3.47672920 1.00000000
-0.59362747 0.17594521 3.45120510 1.00000000
-0.28497928 0.12479050 3.56277602 1.00000000
-0.21610802 0.56888245 3.60068008 1.00000000
-0.52246815 0.66140449 3.46178404 1.00000000
-0.59298027 0.22437264 3.44811311 1.00000000
-0.32117427 0.12803687 3.56689369 1.00000000
-0.21502084 0.51632982 3.58534198 1.00000000
-0.49260823 0.66820532 3.49678708 1.00000000
-0.59212412 0.27259854 3.44401119 1.00000000
-0.35615839 0.12774760 3.56004279 1.00000000
-0.21799995 0.47495729 3.62694451 1.00000000
-0.45574094 0.66554941 3.50378038 1.00000000
-0.59112139 0.32060535 3.43920075 1.00000000
-0.39112922 0.12750788 3.55434207 1.00000000
-0.21686029 0.42236757 3.61087178 1.00000000
-0.41940237 0.66049857 3.49479205 1.00000000
-0.59464819 0.37301456 3.45628063 1.00000000
-0.42033797 0.12520173 3.50070643 1.00000000
-0.21212852 0.36539007 3.54451105 1.00000000
-0.38838946 0.66816469 3.53415103 1.00000000
-0.59371675 0.42111504 3.45181488 1.00000000
-0.45324483 0.12587038 3.48723501 1.00000000
-0.21549307 0.32323387 3.59150666 1.00000000
-0.35497659 0.66762163 3.55087104 1.00000000
-0.59270808 0.46900258 3.44697572 1.00000000
-0.49407476 0.12665044 3.50497252 1.00000000
-0.21392139 0.27145821 3.56938902 1.00000000
-0.31829545 0.66233063 3.54090110 1.00000000
-0.59166272 0.51669359 3.44195903 1.00000000
-0.52334763 0.12496440 3.46617824 1.00000000
-0.21225418 0.22031299 3.54593587 1.00000000
-0.28566212 0.66775203 3.57085276 1.00000000
-0.59061149 0.56420857 3.43691383 1.00000000
-0.56414660 0.12569752 3.48283882 1.00000000
-0.21614691 0.17626461 3.60031928 1.00000000
-0.25152479 0.66795045 3.59138570 1.00000000
-0.59466339 0.61858652 3.45653288 1.00000000
-0.88131465 -1.03694003 3.14447077 1.00000000
-0.36270243 -1.02698731 3.30166664 1.00000000
-0.36692353 -0.49327942 3.33393151 1.00000000
-0.87798678 -0.49189310 3.13505082 1.00000000
-0.41212721 -1.03209186 3.29736314 1.00000000
-0.36519926 -0.54138651 3.32095284 1.00000000
-0.82612573 -0.48907104 3.13958790 1.00000000
-0.87711159 -0.98349554 3.13232428 1.00000000
-0.46125476 -1.03944947 3.29899166 1.00000000
-0.36655447 -0.59284040 3.33104781 1.00000000
-0.78196008 -0.49018915 3.16489720 1.00000000
-0.87568874 -0.93241255 3.12822519 1.00000000
-0.50097729 -1.02791860 3.25294384 1.00000000
-0.36375091 -0.63571601 3.30998723 1.00000000
-0.73458749 -0.48906045 3.17871174 1.00000000
-0.87839179 -0.88721684 3.13606817 1.00000000
-0.55278279 -1.03430713 3.25234393 1.00000000
-0.36506167 -0.68724676 3.31974901 1.00000000
-0.68883693 -0.48861894 3.19057140 1.00000000
-0.87696638 -0.83621579 3.13196168 1.00000000
-0.60115806 -1.03956022 3.24884548 1.00000000
-0.36366890 -0.73482694 3.30925530 1.00000000
-0.64109806 -0.48793944 3.20718724 1.00000000
-0.87555530 -0.78538750 3.12789651 1.00000000
-0.64211362 -1.03078904 3.21100953 1.00000000
-0.36489006 -0.78650706 3.31834538 1.00000000
-0.60191935 -0.49415444 3.25257306 1.00000000
-0.87693891 -0.73600047 3.13192145 1.00000000
-0.68993971 -1.03184314 3.19443862 1.00000000
-0.36602555 -0.83831780 3.32679329 1.00000000
-0.55258447 -0.49126511 3.25178109 1.00000000
-0.87957995 -0.69007352 3.13958518 1.00000000
-0.73660402 -1.03476988 3.18554057 1.00000000
-0.36475607 -0.88575562 3.31722377 1.00000000
-0.50198009 -0.48866547 3.25871665 1.00000000
-0.87818002 -0.63934186 3.13555238 1.00000000
-0.77969275 -1.02934426 3.15718885 1.00000000
-0.36581276 -0.93765189 3.32508099 1.00000000
-0.46146002 -0.49240053 3.30069562 1.00000000
-0.87684392 -0.58881009 3.13170420 1.00000000
-0.82820147 -1.03110905 3.14575565 1.00000000
-0.36679678 -0.98963454 3.33239355 1.00000000
-0.41415344 -0.49316863 3.31125261 1.00000000
-0.87559938 -0.53848445 3.12812089 1.00000000
-1.05476720 -0.91228723 3.03090362 1.00000000
-0.57339412 -0.91760857 3.22013863 1.00000000
-0.56942168 -0.54175955 3.20216796 1.00000000
-1.05466672 -0.54259621 3.03077915 1.00000000
-0.61289659 -0.91145196 3.18853796 1.00000000
-0.57231233 -0.57880297 3.21540661 1.00000000
-1.01364863 -0.54422439 3.05411335 1.00000000
-1.05371201 -0.87849745 3.02847882 1.00000000
-0.66029111 -0.91709272 3.18621550 1.00000000
-0.57084408 -0.60991978 3.20864822 1.00000000
-0.96948540 -0.54398581 3.06927451 1.00000000
-1.05518504 -0.84578597 3.03188700 1.00000000
-0.70243890 -0.91300625 3.16103210 1.00000000
-0.57374041 -0.64739115 3.22191249 1.00000000
-0.92522709 -0.54401141 3.08585339 1.00000000
-1.05663505 -0.81296127 3.03524202 1.00000000
-0.74144531 -0.90721445 3.12838001 1.00000000
-0.56931525 -0.67601255 3.20158786 1.00000000
-0.87793662 -0.54188743 3.09274920 1.00000000
-1.05558990 -0.77922065 3.03284044 1.00000000
-0.79205488 -0.91480606 3.13193471 1.00000000
-0.57217473 -0.71369080 3.21468300 1.00000000
-0.83433860 -0.54387659 3.11161708 1.00000000
-1.05699837 -0.74626087 3.03609966 1.00000000
-0.83197115 -0.90955500 3.10432280 1.00000000
-0.57076285 -0.74452377 3.20818343 1.00000000
-0.79430337 -0.54615391 3.13930743 1.00000000
-1.05597186 -0.71258709 3.03374108 1.00000000
-0.88090373 -0.91461116 3.10104955 1.00000000
-0.57356207 -0.78253917 3.22100169 1.00000000
-0.74422172 -0.54218685 3.13805036 1.00000000
-1.05732183 -0.67948732 3.03686535 1.00000000
-0.92301483 -0.91253546 3.07976566 1.00000000
-0.56933889 -0.81038953 3.20160449 1.00000000
-0.70115931 -0.54239827 3.15654658 1.00000000
-1.05290632 -0.64228420 3.02668834 1.00000000
-0.96999247 -0.91527709 3.07044500 1.00000000
-0.57207444 -0.84855797 3.21413054 1.00000000
-0.65787610 -0.54295195 3.17693753 1.00000000
-1.05426244 -0.60919902 3.02982700 1.00000000
-1.01406147 -0.91671906 3.05499876 1.00000000
-0.57074643 -0.87917830 3.20801602 1.00000000
-0.60915932 -0.53944703 3.17292988 1.00000000
-1.05338745 -0.57582319 3.02781775 1.00000000
-0.95218440 -0.01605099 3.04216022 1.00000000
-0.56320687 -0.01581773 3.16408325 1.00000000
-0.56338709 0.52546926 3.16527461 1.00000000
-0.95127274 0.52940155 3.04000287 1.00000000
-0.60375972 -0.01589113 3.17768304 1.00000000
-0.56646505 0.47943152 3.17930095 1.00000000
-0.91468499 0.52790010 3.04957823 1.00000000
-0.95220088 0.03381287 3.04221991 1.00000000
-0.63958050 -0.01581731 3.16623883 1.00000000
-0.56529335 0.42803913 3.17391461 1.00000000
-0.88156198 0.53017662 3.06976146 1.00000000
-0.95205815 0.08264431 3.04186982 1.00000000
-0.67542380 -0.01575169 3.15618358 1.00000000
-0.56541102 0.38039535 3.17441952 1.00000000
-0.84700974 0.52981170 3.08011052 1.00000000
-0.95291904 0.13312360 3.04409668 1.00000000
-0.71128582 -0.01569287 3.14727919 1.00000000
-0.56428792 0.32933171 3.16925540 1.00000000
-0.80758089 0.52641472 3.08119226 1.00000000
-0.95200458 0.18285176 3.04176584 1.00000000
-0.74261421 -0.01552754 3.12022294 1.00000000
-0.56328641 0.27853003 3.16464678 1.00000000
-0.77269990 0.52613150 3.09210520 1.00000000
-0.95174439 0.23162468 3.04111409 1.00000000
-0.77408958 -0.01538101 3.09635236 1.00000000
-0.56547510 0.23079448 3.17460999 1.00000000
-0.74403755 0.53101459 3.12532707 1.00000000
-0.95355140 0.28250600 3.04577063 1.00000000
-0.80568749 -0.01525015 3.07513637 1.00000000
-0.56271306 0.18058333 3.16196163 1.00000000
-0.70870343 0.53109293 3.13828501 1.00000000
-0.95345790 0.33139113 3.04554707 1.00000000
-0.84681661 -0.01526783 3.07932686 1.00000000
-0.56424124 0.13236479 3.16890772 1.00000000
-0.67337912 0.52954623 3.14872088 1.00000000
-0.95147824 0.38053389 3.04048063 1.00000000
-0.87849625 -0.01515377 3.06095583 1.00000000
-0.56354648 0.08196829 3.16570058 1.00000000
-0.63931181 0.53193695 3.16547890 1.00000000
-0.95108305 0.42916809 3.03948217 1.00000000
-0.91528709 -0.01611402 3.05099890 1.00000000
-0.56339049 0.03439312 3.16495568 1.00000000
-0.60387039 0.53086058 3.17850245 1.00000000
-0.95378350 0.48084525 3.04643333 1.00000000
0.41133905 0.62492455 3.51229539 1.00000000
0.92424926 0.62146604 3.68072128 1.00000000
0.92230124 0.96978932 3.67394862 1.00000000
0.41204424 0.98095617 3.51683979 1.00000000
0.87413332 0.61815449 3.65754759 1.00000000
0.92659044 0.94342090 3.68835705 1.00000000
0.45833214 0.97530683 3.52180908 1.00000000
0.40995655 0.65484378 3.50241960 1.00000000
0.83082484 0.62021256 3.64552590 1.00000000
0.92504132 0.90917427 3.68318298 1.00000000
0.50636871 0.97817996 3.54347670 1.00000000
0.40863896 0.68465465 3.49300582 1.00000000
0.78649422 0.62234255 3.64050290 1.00000000
0.92349503 0.87503904 3.67801831 1.00000000
0.55412874 0.98122104 3.56975767 1.00000000
0.40738653 0.71437280 3.48405570 1.00000000
0.73842193 0.62250531 3.61950787 1.00000000
0.92777398 0.84817414 3.69239259 1.00000000
0.59863760 0.97419703 3.56707072 1.00000000
0.40930903 0.74846180 3.49768844 1.00000000
0.69467451 0.62466692 3.61482578 1.00000000
0.92621183 0.81403428 3.68717480 1.00000000
0.64704363 0.97637414 3.59115985 1.00000000
0.41240010 0.78807959 3.51962772 1.00000000
0.64725441 0.62445355 3.59245796 1.00000000
0.92466310 0.78001537 3.68200189 1.00000000
0.69327288 0.97755197 3.60840511 1.00000000
0.41112738 0.81775512 3.51053339 1.00000000
0.60122864 0.62323303 3.58032737 1.00000000
0.92313533 0.74612211 3.67689918 1.00000000
0.73843128 0.97350417 3.61926177 1.00000000
0.40991857 0.84736278 3.50189381 1.00000000
0.54999467 0.62080476 3.54784978 1.00000000
0.92728890 0.71857501 3.69085330 1.00000000
0.78545064 0.97446355 3.63617120 1.00000000
0.40877104 0.87691193 3.49369028 1.00000000
0.50564126 0.62339611 3.53961723 1.00000000
0.92574573 0.68468215 3.68569903 1.00000000
0.83697270 0.97875750 3.66794280 1.00000000
0.41046840 0.91135226 3.50572067 1.00000000
0.45934818 0.62413675 3.52874341 1.00000000
0.92024777 0.64944460 3.66727674 1.00000000
0.88016706 0.97759125 3.67853417 1.00000000
0.40935641 0.94084900 3.49777013 1.00000000
