-0.68018059 -1.16064241 6.94724535 1.00000000
-0.05856024 -1.13693406 7.02061415 1.00000000
-0.05828376 -0.67150073 7.00155855 1.00000000
-0.66598263 -0.67713868 6.81621822 1.00000000
-0.11218419 -1.12980201 6.97486521 1.00000000
-0.05865125 -0.71698257 7.03548642 1.00000000
-0.60180893 -0.66591349 6.74403716 1.00000000
-0.68073219 -1.11977925 6.95243046 1.00000000
-0.17358984 -1.16094062 7.12651421 1.00000000
-0.05898262 -0.76250506 7.06601205 1.00000000
-0.55985210 -0.68198223 6.89915255 1.00000000
-0.68130576 -1.07888287 6.95781959 1.00000000
-0.22046435 -1.12264779 6.88753062 1.00000000
-0.05619888 -0.77519243 6.80364609 1.00000000
-0.49769169 -0.67137850 6.83728453 1.00000000
-0.68190129 -1.03794928 6.96341264 1.00000000
-0.28285906 -1.14979941 7.01588501 1.00000000
-0.05657984 -0.82023685 6.83884906 1.00000000
-0.44145306 -0.66691957 6.80035629 1.00000000
-0.66405710 -0.96703689 6.79788528 1.00000000
-0.33607749 -1.14543816 6.98621778 1.00000000
-0.05693064 -0.86534751 6.87121103 1.00000000
-0.37827038 -0.66000642 6.74086755 1.00000000
-0.66452851 -0.92689876 6.80232481 1.00000000
-0.38892170 -1.13915898 6.90950353 1.00000000
-0.05725459 -0.91051403 6.90104377 1.00000000
-0.34349566 -0.69731027 7.12566695 1.00000000
-0.68116875 -0.90492387 6.95682410 1.00000000
-0.44840254 -1.13767182 6.89556711 1.00000000
-0.05755457 -0.95572792 6.92861794 1.00000000
-0.27318496 -0.65936172 6.80398478 1.00000000
-0.68183226 -0.86393053 6.96304824 1.00000000
-0.51676898 -1.17382485 7.07275887 1.00000000
-0.05783308 -1.00098219 6.95416905 1.00000000
-0.22212783 -0.67262234 6.93531679 1.00000000
-0.68251713 -0.82288157 6.96947081 1.00000000
-0.55081951 -1.12826873 6.79757975 1.00000000
-0.05809229 -1.04627105 6.97790260 1.00000000
-0.16777333 -0.67059285 6.92100688 1.00000000
-0.68322117 -0.78177062 6.97607140 1.00000000
-0.61285902 -1.14302187 6.85517167 1.00000000
-0.05833412 -1.09158969 6.99999837 1.00000000
-0.10651880 -0.64151179 6.68100160 1.00000000
-0.66514795 -0.71715932 6.80840693 1.00000000
-2.31751464 1.63133028 6.27854693 1.00000000
-1.70374688 1.63457963 6.50720257 1.00000000
-1.70124294 2.05487880 6.49876313 1.00000000
-2.32225687 2.06200418 6.29047184 1.00000000
-1.75313383 1.62774609 6.46474533 1.00000000
-1.70422053 2.01887849 6.50911103 1.00000000
-2.24272930 2.03976159 6.25146073 1.00000000
-2.31360450 1.66698422 6.26891473 1.00000000
-1.82594740 1.64503115 6.49979031 1.00000000
-1.70722200 1.98276860 6.51954202 1.00000000
-2.19529125 2.04679703 6.29366979 1.00000000
-2.30963236 1.70246371 6.25912929 1.00000000
-1.85454588 1.61750875 6.39428958 1.00000000
-1.69383251 1.93084526 6.47286607 1.00000000
-2.13130723 2.03611383 6.28577117 1.00000000
-2.30560612 1.73777159 6.24921013 1.00000000
-1.90866730 1.61647158 6.36296465 1.00000000
-1.69680442 1.89480975 6.48319426 1.00000000
-2.06670310 2.03009073 6.28336538 1.00000000
-2.30153332 1.77291095 6.23917586 1.00000000
-1.99577316 1.64228581 6.43889703 1.00000000
-1.71861256 1.88236427 6.55915182 1.00000000
-2.01687057 2.03593379 6.32262417 1.00000000
-2.31434388 1.82426021 6.27082015 1.00000000
-2.02273633 1.62208689 6.33913199 1.00000000
-1.72168429 1.84573181 6.56982699 1.00000000
-1.98727438 2.06006571 6.41412948 1.00000000
-2.31024470 1.85938366 6.26072098 1.00000000
-2.08926106 1.62868055 6.34556956 1.00000000
-1.70807946 1.79446560 6.52240216 1.00000000
-1.90526010 2.03351602 6.35286961 1.00000000
-2.30610987 1.89434270 6.25053362 1.00000000
-2.12275165 1.60983705 6.26256374 1.00000000
-1.71111846 1.75790715 6.53296351 1.00000000
-1.85303779 2.03835796 6.38981282 1.00000000
-2.30194590 1.92914102 6.24027415 1.00000000
-2.20656041 1.63147814 6.32287655 1.00000000
-1.71416160 1.72121288 6.54353914 1.00000000
-1.81992103 2.06182275 6.48048199 1.00000000
-2.31315616 1.97406811 6.26796549 1.00000000
-2.25521302 1.62779968 6.28292728 1.00000000
-1.71720369 1.68437745 6.55411098 1.00000000
-1.73683024 2.03234228 6.41020680 1.00000000
-2.30896476 2.00882735 6.25763847 1.00000000
-1.06710725 -0.83559080 6.27907219 1.00000000
-0.60385307 -0.81912963 6.35240500 1.00000000
-0.59837439 -0.20261864 6.30158442 1.00000000
-1.07296748 -0.20759229 6.31089083 1.00000000
-0.64991521 -0.82829830 6.37160644 1.00000000
-0.60307563 -0.25960065 6.34595807 1.00000000
-1.02913909 -0.20752358 6.31285088 1.00000000
-1.07408267 -0.78273669 6.31627496 1.00000000
-0.69358751 -0.82838398 6.36812906 1.00000000
-0.59977811 -0.31599751 6.31467833 1.00000000
-0.98475650 -0.20733290 6.31140873 1.00000000
-1.06788518 -0.72304042 6.28332409 1.00000000
-0.72932605 -0.82612587 6.34870846 1.00000000
-0.60648887 -0.37519142 6.37805331 1.00000000
-0.93983837 -0.20700762 6.30620577 1.00000000
-1.07442025 -0.66914024 6.31818259 1.00000000
-0.78949537 -0.84694003 6.46823467 1.00000000
-0.61443246 -0.43645107 6.45308371 1.00000000
-0.89440842 -0.20653390 6.29684771 1.00000000
-1.08039515 -0.61422147 6.35005829 1.00000000
-0.81859457 -0.83430579 6.35666400 1.00000000
-0.59599885 -0.47788567 6.27867218 1.00000000
-0.84849635 -0.20589652 6.28290156 1.00000000
-1.06189360 -0.54576768 6.25158227 1.00000000
-0.84004314 -0.81606150 6.22568615 1.00000000
-0.60384815 -0.53954520 6.35281109 1.00000000
-0.82968662 -0.20800377 6.43525372 1.00000000
-1.06787160 -0.49087964 6.28347548 1.00000000
-0.89830690 -0.83346624 6.32093342 1.00000000
-0.59914479 -0.59314123 6.30824023 1.00000000
-0.78215339 -0.20713651 6.41465574 1.00000000
-1.06377288 -0.43399191 6.26169908 1.00000000
-0.94035150 -0.83227759 6.30864116 1.00000000
-0.60756027 -0.65713147 6.38772958 1.00000000
-0.73418032 -0.20604501 6.38766085 1.00000000
-1.06895849 -0.37809704 6.28937315 1.00000000
-0.98215461 -0.83098993 6.29567384 1.00000000
-0.60268766 -0.71001130 6.34155931 1.00000000
-0.69609603 -0.20599892 6.38977934 1.00000000
-1.06584539 -0.32187619 6.27284543 1.00000000
-1.02593183 -0.83723531 6.29441275 1.00000000
-0.61126530 -0.77607331 6.42257856 1.00000000
-0.64735831 -0.20445888 6.34997905 1.00000000
-1.07002421 -0.26507763 6.29515830 1.00000000
-2.08610711 1.77392960 5.74441516 1.00000000
-1.51453124 1.78556513 5.98941435 1.00000000
-1.51661796 2.25542983 5.99719353 1.00000000
-2.06488172 2.21542215 5.69192888 1.00000000
-1.54944478 1.76284355 5.91482559 1.00000000
-1.50052028 2.18740574 5.93962892 1.00000000
-2.01962905 2.22122563 5.72318876 1.00000000
-2.07340502 1.80572170 5.71288593 1.00000000
-1.59163707 1.74914361 5.85074310 1.00000000
-1.49926536 2.14431462 5.93511535 1.00000000
-1.98428760 2.24155182 5.78894271 1.00000000
-2.07328746 1.84563697 5.71261454 1.00000000
-1.64390219 1.74998334 5.83141727 1.00000000
-1.49800478 2.10128446 5.93058156 1.00000000
-1.92189207 2.23246780 5.78589438 1.00000000
-2.08772897 1.90157745 5.74850888 1.00000000
-1.70870226 1.76140499 5.85178189 1.00000000
-1.50975972 2.07349422 5.97256367 1.00000000
-1.86004359 2.21757047 5.77561007 1.00000000
-2.07485237 1.93247895 5.71654581 1.00000000
-1.75990675 1.76135356 5.82983090 1.00000000
-1.50853124 2.03029240 5.96814452 1.00000000
-1.82193137 2.23718952 5.84052315 1.00000000
-2.07473843 1.97241911 5.71628344 1.00000000
-1.81055030 1.76106954 5.80732021 1.00000000
-1.50729760 1.98715125 5.96370697 1.00000000
-1.77350922 2.24218007 5.87076516 1.00000000
-2.07643625 2.01946840 5.72052428 1.00000000
-1.86078331 1.75582583 5.77741940 1.00000000
-1.50606022 1.94407299 5.95925611 1.00000000
-1.69676674 2.21080048 5.81517875 1.00000000
-2.07632362 2.05943607 5.72026516 1.00000000
-1.90988775 1.75481409 5.75303587 1.00000000
-1.51819551 1.91522069 6.00259602 1.00000000
-1.64730294 2.21458277 5.84258559 1.00000000
-2.07620988 2.09939856 5.72000330 1.00000000
-1.97767157 1.76821579 5.77127081 1.00000000
-1.51697744 1.87193926 5.99821407 1.00000000
-1.59737913 2.21833606 5.87007701 1.00000000
-2.07791640 2.14659163 5.72426581 1.00000000
-2.02471403 1.76101729 5.73593398 1.00000000
-1.51575545 1.82871997 5.99381816 1.00000000
-1.55467240 2.23665891 5.93315126 1.00000000
-2.07780139 2.18657920 5.72400080 1.00000000
-0.99815827 1.61104877 5.90276743 1.00000000
-0.41118047 1.64581892 6.23385434 1.00000000
-0.41268274 2.08298524 6.25509380 1.00000000
-1.00844372 2.05458845 5.95781767 1.00000000
-0.46265922 1.62893238 6.17006940 1.00000000
-0.41067771 2.03040446 6.22794288 1.00000000
-0.96641354 2.08045327 6.04632490 1.00000000
-1.01292074 1.67333186 5.98122560 1.00000000
-0.51463672 1.62277527 6.12400296 1.00000000
-0.40976060 1.98907707 6.21548494 1.00000000
-0.89886762 2.05045396 5.99494110 1.00000000
-1.00210434 1.69356182 5.92380327 1.00000000
-0.58194648 1.65058938 6.20336715 1.00000000
-0.40881767 1.94779170 6.20267908 1.00000000
-0.85170978 2.06247234 6.04704118 1.00000000
-1.01667742 1.75677897 6.00125636 1.00000000
-0.63317454 1.64349060 6.15419112 1.00000000
-0.40667297 1.89552579 6.17364564 1.00000000
-0.79597282 2.06253518 6.06771187 1.00000000
-1.00592892 1.77645726 5.94419419 1.00000000
-0.68345324 1.63611779 6.10446772 1.00000000
-0.40565889 1.85437450 6.15988075 1.00000000
-0.73973924 2.06350934 6.08399780 1.00000000
-1.00880886 1.82260218 5.95953303 1.00000000
-0.75258224 1.66256841 6.17828697 1.00000000
-0.41090750 1.83811883 6.23060747 1.00000000
-0.68341452 2.06352875 6.10475157 1.00000000
-1.00962631 1.85969742 5.96391001 1.00000000
-0.79783553 1.64082906 6.07995246 1.00000000
-0.40990987 1.79685334 6.21706413 1.00000000
-0.63321972 2.07459016 6.15523158 1.00000000
-1.01242620 1.90605937 5.97882387 1.00000000
-0.84271712 1.61810715 5.98916399 1.00000000
-0.40761657 1.74465780 6.18602752 1.00000000
-0.58211161 2.08550726 6.20565384 1.00000000
-1.00217328 1.92487704 5.92439240 1.00000000
-0.90095755 1.62795843 6.00701068 1.00000000
-0.40653882 1.70354426 6.17140428 1.00000000
-0.51763883 2.06233636 6.15666682 1.00000000
-1.01591224 1.98980756 5.99741772 1.00000000
-0.95863165 1.63366685 6.00204948 1.00000000
-0.41223818 1.68706107 6.24820768 1.00000000
-0.46559744 2.07271455 6.20586461 1.00000000
-1.00574814 2.00816242 5.94345761 1.00000000
-2.25114825 1.14560791 5.46222941 1.00000000
-1.77724629 1.13468651 5.58903712 1.00000000
-1.78004201 1.78543447 5.59730305 1.00000000
-2.25150431 1.79661496 5.46330947 1.00000000
-1.83880704 1.14923497 5.62602564 1.00000000
-1.78517081 1.73334288 5.61175662 1.00000000
-2.18948439 1.78076235 5.43148794 1.00000000
-2.24723554 1.20469857 5.45373713 1.00000000
-1.87119463 1.14344385 5.58359684 1.00000000
-1.77646939 1.66524376 5.58714566 1.00000000
-2.16994203 1.79674535 5.49396322 1.00000000
-2.24169119 1.25756004 5.44168854 1.00000000
-1.90719342 1.13882039 5.55903981 1.00000000
-1.79345630 1.62114822 5.63508963 1.00000000
-2.11965998 1.79241160 5.49412314 1.00000000
-2.23727712 1.31589992 5.43210345 1.00000000
-1.95075235 1.14098569 5.54113916 1.00000000
-1.78470924 1.55331487 5.61035048 1.00000000
-2.06774363 1.78215735 5.48424624 1.00000000
-2.24283460 1.37771475 5.44423457 1.00000000
-1.98576422 1.13616038 5.51585270 1.00000000
-1.78967167 1.50026291 5.62433341 1.00000000
-2.04612566 1.79788519 5.54673834 1.00000000
-2.24864979 1.43998184 5.45692678 1.00000000
-2.05497100 1.15181919 5.56794923 1.00000000
-1.78109637 1.43326357 5.60007966 1.00000000
-1.98177194 1.77906586 5.50623267 1.00000000
-2.24407529 1.49805708 5.44699256 1.00000000
-2.06216481 1.13293791 5.47064701 1.00000000
-1.78594060 1.37991407 5.61372870 1.00000000
-1.96022782 1.79641696 5.56564922 1.00000000
-2.25011721 1.56082144 5.46017868 1.00000000
-2.12994925 1.14749731 5.51774544 1.00000000
-1.77761513 1.31378184 5.59018080 1.00000000
-1.90717120 1.78974455 5.55933165 1.00000000
-2.24384025 1.61236588 5.44653414 1.00000000
-2.17040729 1.14839860 5.49470794 1.00000000
-1.76960676 1.24842624 5.56752822 1.00000000
-1.87117075 1.79180113 5.58388809 1.00000000
-2.23898068 1.66974558 5.43597856 1.00000000
-2.18552276 1.13265230 5.42236869 1.00000000
-1.78514701 1.19968981 5.61138481 1.00000000
-1.84624475 1.80728947 5.64685044 1.00000000
-2.24516589 1.73295913 5.44947723 1.00000000
-1.19389252 -1.45166969 5.71403431 1.00000000
-0.75015164 -1.44775486 5.86116844 1.00000000
-0.75978242 -0.83514599 5.92924044 1.00000000
-1.20295375 -0.83348555 5.75343946 1.00000000
-0.80046771 -1.46953566 5.92651718 1.00000000
-0.74456984 -0.87416444 5.82285636 1.00000000
-1.14503039 -0.82123025 5.69869165 1.00000000
-1.19670183 -1.39723594 5.72614110 1.00000000
-0.83515602 -1.46079544 5.87062447 1.00000000
-0.75515617 -0.94314399 5.89677025 1.00000000
-1.13262195 -0.84009370 5.83682915 1.00000000
-1.19954151 -1.34256604 5.73837852 1.00000000
-0.88387698 -1.47032977 5.90134857 1.00000000
-0.75398380 -1.00082539 5.88850451 1.00000000
-1.05932815 -0.81405528 5.69439800 1.00000000
-1.19046024 -1.27740545 5.69943590 1.00000000
-0.91747261 -1.46131509 5.84480566 1.00000000
-0.75062634 -1.04990476 5.86497557 1.00000000
-1.03424925 -0.82687619 5.77955045 1.00000000
-1.19329117 -1.22275812 5.71163582 1.00000000
-0.94809995 -1.44365671 5.77672613 1.00000000
-0.74953116 -1.10717282 5.85724990 1.00000000
-0.98771176 -0.82543609 5.77461909 1.00000000
-1.19613002 -1.16784654 5.72386993 1.00000000
-0.98653947 -1.44756399 5.76788396 1.00000000
-0.75984361 -1.17925413 5.92924496 1.00000000
-0.94638393 -0.81849101 5.76797670 1.00000000
-1.18723281 -1.10429289 5.68571595 1.00000000
-1.04265753 -1.46638372 5.82110346 1.00000000
-0.75862372 -1.23686582 5.92064717 1.00000000
-0.91931808 -0.83164188 5.85599553 1.00000000
-1.19009567 -1.04942503 5.69805326 1.00000000
-1.05967265 -1.43501695 5.69550650 1.00000000
-0.75533346 -1.28537651 5.89758879 1.00000000
-0.89149241 -0.84534083 5.94764787 1.00000000
-1.19293716 -0.99426459 5.71029902 1.00000000
-1.12303760 -1.46584886 5.79190553 1.00000000
-0.75422426 -1.34265117 5.88976511 1.00000000
-0.81815078 -0.81318277 5.76424940 1.00000000
-1.19572987 -0.93879329 5.72233551 1.00000000
-1.16440856 -1.46781144 5.78460810 1.00000000
-0.76392852 -1.41703979 5.95750569 1.00000000
-0.80047948 -0.83543993 5.92733950 1.00000000
-1.18742428 -0.87737150 5.68671987 1.00000000
-0.14209981 -1.65426612 5.90825784 1.00000000
0.43433563 -1.63825624 6.06588302 1.00000000
0.43994477 -1.33246990 6.13817685 1.00000000
-0.14253937 -1.33318714 5.92555180 1.00000000
0.38547918 -1.65271198 6.09931290 1.00000000
0.44119447 -1.36675161 6.15448060 1.00000000
-0.08799346 -1.31095136 5.85259894 1.00000000
-0.14191230 -1.62296342 5.90183683 1.00000000
0.33325307 -1.65349378 6.07850400 1.00000000
0.44240344 -1.40107811 6.17025534 1.00000000
-0.03587848 -1.31160815 5.88194456 1.00000000
-0.14171883 -1.59166854 5.89520582 1.00000000
0.27739256 -1.64841102 6.03800583 1.00000000
0.44357346 -1.43544663 6.18552393 1.00000000
0.01674311 -1.32370169 5.93622609 1.00000000
-0.14151910 -1.56038197 5.88835473 1.00000000
0.23157726 -1.67066228 6.09727697 1.00000000
0.43500458 -1.43402637 6.07418218 1.00000000
0.07009556 -1.32505487 5.96894009 1.00000000
-0.14131282 -1.52910428 5.88127289 1.00000000
0.17286265 -1.63020208 5.94968734 1.00000000
0.43623215 -1.46823051 6.09019832 1.00000000
0.11878969 -1.30186001 5.89080266 1.00000000
-0.14109966 -1.49783606 5.87394892 1.00000000
0.11922189 -1.62647767 5.91448457 1.00000000
0.43742251 -1.50247745 6.10573105 1.00000000
0.17610278 -1.33825583 6.05556184 1.00000000
-0.14087928 -1.46657793 5.86637074 1.00000000
0.07002925 -1.64698829 5.96749882 1.00000000
0.43857719 -1.53676481 6.12080016 1.00000000
0.22685696 -1.31514096 5.97779470 1.00000000
-0.14065132 -1.43533061 5.85852549 1.00000000
0.01668580 -1.64266945 5.93044607 1.00000000
0.43969763 -1.57109036 6.13542451 1.00000000
0.27578367 -1.31491770 6.00396454 1.00000000
-0.14041537 -1.40409484 5.85039946 1.00000000
-0.03604018 -1.63864819 5.89463469 1.00000000
0.44078522 -1.60545201 6.14962209 1.00000000
0.33112056 -1.31716638 6.04118308 1.00000000
-0.14295885 -1.39581744 5.93995867 1.00000000
-0.08974338 -1.65832757 5.94407977 1.00000000
0.43320510 -1.60403870 6.05112768 1.00000000
0.38392304 -1.32424629 6.07561546 1.00000000
-0.14275299 -1.36449751 5.93289206 1.00000000
1.05141436 1.42780167 6.29183246 1.00000000
1.67574096 1.42929993 6.52307025 1.00000000
1.68357171 1.96526128 6.55086758 1.00000000
1.05250690 1.95811128 6.29745622 1.00000000
1.63814736 1.44714034 6.57845007 1.00000000
1.68585142 1.92165722 6.55904692 1.00000000
1.11874978 1.97134768 6.35859292 1.00000000
1.05154594 1.47830231 6.29251967 1.00000000
1.57133683 1.43936346 6.51668244 1.00000000
1.68815945 1.87795859 6.56732769 1.00000000
1.17357490 1.96869226 6.37285533 1.00000000
1.04811110 1.51794465 6.27357446 1.00000000
1.51424349 1.43646895 6.49937398 1.00000000
1.68619667 1.82360492 6.56032550 1.00000000
1.21468340 1.94617340 6.32075674 1.00000000
1.04828140 1.56835487 6.27447501 1.00000000
1.44977203 1.42930545 6.44079802 1.00000000
1.68852697 1.77978409 6.56868603 1.00000000
1.27421997 1.95515817 6.36929035 1.00000000
1.06235128 1.63787759 6.35190675 1.00000000
1.39771684 1.43653771 6.44151049 1.00000000
1.67041921 1.71150378 6.50389771 1.00000000
1.34452365 1.97039761 6.43739729 1.00000000
1.04521245 1.65812264 6.25750768 1.00000000
1.34157338 1.43372051 6.42470236 1.00000000
1.68889675 1.68156691 6.57005250 1.00000000
1.40032966 1.96783393 6.45229979 1.00000000
1.05883758 1.72805427 6.33248988 1.00000000
1.26941065 1.42191271 6.34750100 1.00000000
1.69125527 1.63749673 6.57851416 1.00000000
1.44130093 1.94742397 6.40592700 1.00000000
1.05882989 1.77870916 6.33241002 1.00000000
1.22469611 1.43158404 6.36897578 1.00000000
1.67301709 1.57057393 6.51325841 1.00000000
1.50444401 1.95809575 6.46041916 1.00000000
1.05553036 1.81794642 6.31421035 1.00000000
1.17382265 1.43994525 6.37444285 1.00000000
1.69162096 1.53908118 6.57986606 1.00000000
1.56089752 1.95591117 6.47661075 1.00000000
1.05556796 1.86852041 6.31437992 1.00000000
1.11886212 1.43755054 6.35955314 1.00000000
1.69397505 1.49472716 6.58831196 1.00000000
1.62616062 1.96730192 6.53390334 1.00000000
1.03993260 1.88725481 6.22826157 1.00000000
-0.94070058 0.08585165 5.03063140 1.00000000
-0.56149196 0.08915920 5.24752707 1.00000000
-0.55324170 0.71075618 5.18071629 1.00000000
-0.94678328 0.71255661 5.05981165 1.00000000
-0.59034421 0.08792162 5.17833501 1.00000000
-0.55778294 0.65798552 5.21790335 1.00000000
-0.90403538 0.70941016 5.04360754 1.00000000
-0.94202893 0.14519211 5.03693546 1.00000000
-0.63408335 0.08917037 5.24044152 1.00000000
-0.55367603 0.59728551 5.18411875 1.00000000
-0.86738419 0.70638964 5.04394514 1.00000000
-0.94046867 0.20156544 5.02964040 1.00000000
-0.66198289 0.08794046 5.17175988 1.00000000
-0.55827744 0.54361504 5.22179821 1.00000000
-0.84012791 0.71371640 5.09415783 1.00000000
-0.94191151 0.25649700 5.03648013 1.00000000
-0.68957662 0.08680105 5.10794718 1.00000000
-0.55439111 0.48388703 5.18982507 1.00000000
-0.80528575 0.71516196 5.12056817 1.00000000
-0.93913707 0.31228470 5.02346817 1.00000000
-0.74034307 0.08820045 5.17736069 1.00000000
-0.55888699 0.42913892 5.22663688 1.00000000
-0.76677103 0.71081644 5.11266456 1.00000000
-0.94216759 0.37251344 5.03778675 1.00000000
-0.76691444 0.08704593 5.11284856 1.00000000
-0.55547410 0.37044777 5.19855018 1.00000000
-0.73807705 0.71826111 5.16409790 1.00000000
-0.94462826 0.42825832 5.04941880 1.00000000
-0.79321783 0.08596672 5.05238972 1.00000000
-0.56113247 0.32008859 5.24490625 1.00000000
-0.68386236 0.70073979 5.07148916 1.00000000
-0.94083035 0.48319656 5.03158806 1.00000000
-0.84250280 0.08707172 5.10622723 1.00000000
-0.56432174 0.26272352 5.27099214 1.00000000
-0.66281247 0.71459284 5.17821566 1.00000000
-0.93641725 0.53733483 5.01085981 1.00000000
-0.86784677 0.08598992 5.04573114 1.00000000
-0.56143374 0.20469988 5.24721389 1.00000000
-0.63261174 0.72210339 5.23054846 1.00000000
-0.93901197 0.59327148 5.02312359 1.00000000
-0.89295231 0.08497135 4.98863948 1.00000000
-0.56333539 0.14633678 5.26273281 1.00000000
-0.58444021 0.70409701 5.13372993 1.00000000
-0.94360093 0.65546172 5.04478082 1.00000000
0.71889445 -1.53374336 5.36308007 1.00000000
1.30712480 -1.55543500 5.63505326 1.00000000
1.30211390 -1.09004355 5.61525144 1.00000000
0.71689436 -1.07510618 5.34911100 1.00000000
1.24907264 -1.55159728 5.60135539 1.00000000
1.30309413 -1.13000791 5.61910023 1.00000000
0.78211534 -1.09484016 5.44216986 1.00000000
0.72717164 -1.51150470 5.41908734 1.00000000
1.20021925 -1.55257207 5.58395277 1.00000000
1.30756222 -1.17817147 5.63657872 1.00000000
0.83449344 -1.09373711 5.46379196 1.00000000
0.72500162 -1.46423076 5.40435415 1.00000000
1.15428410 -1.56169211 5.59940699 1.00000000
1.29694047 -1.20964536 5.59509886 1.00000000
0.88736303 -1.09279165 5.48631028 1.00000000
0.72275300 -1.41706010 5.38908899 1.00000000
1.09801900 -1.55882175 5.56922885 1.00000000
1.31307271 -1.26706116 5.65814916 1.00000000
0.94400416 -1.10072811 5.52702230 1.00000000
0.72042333 -1.37000205 5.37327535 1.00000000
1.02927957 -1.53362465 5.47655583 1.00000000
1.30238704 -1.29796629 5.61641951 1.00000000
0.99808537 -1.10006433 5.55122882 1.00000000
0.72051434 -1.33252184 5.37385616 1.00000000
0.98527905 -1.54316273 5.48689304 1.00000000
1.30684792 -1.34668219 5.63387013 1.00000000
1.02533000 -1.07561776 5.45724155 1.00000000
0.71805618 -1.28562774 5.35717292 1.00000000
0.93066774 -1.54000495 5.45647060 1.00000000
1.30784210 -1.38699749 5.63777359 1.00000000
1.09441466 -1.09327829 5.55237955 1.00000000
0.71551122 -1.23887506 5.33990227 1.00000000
0.87667368 -1.53697739 5.42667239 1.00000000
1.29735241 -1.41692301 5.59680884 1.00000000
1.14969053 -1.09306202 5.57894058 1.00000000
0.72485559 -1.21527480 5.40313188 1.00000000
0.83215944 -1.54869692 5.45028732 1.00000000
1.30176091 -1.46583911 5.61405501 1.00000000
1.19418747 -1.08470932 5.55827828 1.00000000
0.72229351 -1.16838514 5.38574518 1.00000000
0.77888016 -1.54613492 5.42211685 1.00000000
1.30275977 -1.50610307 5.61797677 1.00000000
1.25620270 -1.09713980 5.63008931 1.00000000
0.71963977 -1.12165681 5.36773824 1.00000000
-0.98316194 0.59556888 4.68368793 1.00000000
-0.37406519 0.58635509 4.84996783 1.00000000
-0.37666506 1.05363486 4.87983186 1.00000000
-0.98193664 1.05809643 4.67896085 1.00000000
-0.43373946 0.59167421 4.88340897 1.00000000
-0.37503700 1.00602770 4.86159398 1.00000000
-0.92191237 1.05207228 4.67764977 1.00000000
-0.98361070 0.63784706 4.68558502 1.00000000
-0.47980904 0.58457566 4.79448661 1.00000000
-0.37332722 0.95858179 4.84244549 1.00000000
-0.87227105 1.05547484 4.71324510 1.00000000
-0.98410259 0.68019307 4.68766129 1.00000000
-0.53369654 0.58124851 4.76473657 1.00000000
-0.37297556 0.91909622 4.83845103 1.00000000
-0.80450364 1.04164134 4.67354927 1.00000000
-0.98463049 0.72260721 4.68988717 1.00000000
-0.59533450 0.59222765 4.80745289 1.00000000
-0.37112689 0.87192906 4.81775481 1.00000000
-0.75770904 1.05235134 4.73861977 1.00000000
-0.98518777 0.76508894 4.69223516 1.00000000
-0.64841142 0.58843582 4.77457654 1.00000000
-0.37661273 0.84351754 4.87885124 1.00000000
-0.70550978 1.05459117 4.77024735 1.00000000
-0.98576835 0.80763707 4.69467998 1.00000000
-0.70237005 0.59025713 4.75129103 1.00000000
-0.37471830 0.79625541 4.85764495 1.00000000
-0.64551804 1.04741230 4.75658700 1.00000000
-0.98636671 0.85024985 4.69719870 1.00000000
-0.76236588 0.59514445 4.76350527 1.00000000
-0.37273275 0.74923976 4.83542331 1.00000000
-0.59192470 1.04856440 4.78410626 1.00000000
-0.98697789 0.89292508 4.69977072 1.00000000
-0.80394987 0.58278865 4.67032884 1.00000000
-0.37229440 0.70985037 4.83046263 1.00000000
-0.53555483 1.04184072 4.77971132 1.00000000
-0.98016502 0.93060271 4.67150229 1.00000000
-0.86983617 0.59224342 4.70138099 1.00000000
-0.37016482 0.66327848 4.80663637 1.00000000
-0.48116815 1.04283589 4.80690285 1.00000000
-0.98074140 0.97303639 4.67392960 1.00000000
-0.91821657 0.58725768 4.66093730 1.00000000
-0.37626683 0.63301351 4.87459736 1.00000000
-0.42629970 1.04029909 4.81175202 1.00000000
-0.98133337 1.01553516 4.67642173 1.00000000
0.25150100 -1.31108297 5.02345791 1.00000000
0.84061028 -1.30735860 5.22722674 1.00000000
0.85176483 -0.95200128 5.28954602 1.00000000
0.24813573 -0.92753507 4.96019365 1.00000000
0.78299191 -1.30228477 5.18766198 1.00000000
0.83935152 -0.97170577 5.21991053 1.00000000
0.31061589 -0.95285428 5.09524324 1.00000000
0.24836845 -1.26120597 4.96542508 1.00000000
0.72645489 -1.29771353 5.15019240 1.00000000
0.83728591 -1.00092818 5.20834250 1.00000000
0.35689249 -0.93762198 5.03960018 1.00000000
0.25269531 -1.25119586 5.04536335 1.00000000
0.67092870 -1.29364495 5.11479065 1.00000000
0.84814548 -1.04874551 5.26931116 1.00000000
0.40898164 -0.93277289 5.04293628 1.00000000
0.24939778 -1.20118784 4.98428122 1.00000000
0.62372754 -1.30462668 5.13247208 1.00000000
0.83621246 -1.06743042 5.20236958 1.00000000
0.46135157 -0.93264587 5.06890174 1.00000000
0.24946141 -1.16654841 4.98536050 1.00000000
0.57578908 -1.31437846 5.15257331 1.00000000
0.84683526 -1.11577966 5.26201026 1.00000000
0.52290139 -0.94478529 5.13305942 1.00000000
0.25423733 -1.15670330 5.07359846 1.00000000
0.52125564 -1.31070996 5.11886231 1.00000000
0.84476400 -1.14494903 5.25041051 1.00000000
0.57736885 -0.94574894 5.16496260 1.00000000
0.25065157 -1.10654721 5.00718903 1.00000000
0.46217084 -1.30491764 5.07761839 1.00000000
0.84559013 -1.18269272 5.25507439 1.00000000
0.62359437 -0.93520328 5.13109491 1.00000000
0.25075927 -1.07189890 5.00908289 1.00000000
0.40935317 -1.30219208 5.04771477 1.00000000
0.84358976 -1.21174838 5.24387232 1.00000000
0.67766504 -0.93827053 5.16080158 1.00000000
0.24695573 -1.02229703 4.93864999 1.00000000
0.35602551 -1.30274566 5.02910154 1.00000000
0.84441214 -1.24950380 5.24851522 1.00000000
0.73348899 -0.93958548 5.19487498 1.00000000
0.25215597 -1.01191468 5.03472852 1.00000000
0.30421971 -1.29999497 4.99951442 1.00000000
0.84248317 -1.27846072 5.23771368 1.00000000
0.78052066 -0.93146165 5.17258772 1.00000000
0.25232520 -0.97725431 5.03775940 1.00000000
-0.18288457 1.03478394 4.57840161 1.00000000
0.26194326 1.02277061 4.69102174 1.00000000
0.26493225 1.67272891 4.73848278 1.00000000
-0.18297519 1.67723366 4.58246430 1.00000000
0.22638479 1.03799932 4.73906765 1.00000000
0.26581874 1.62086703 4.75316121 1.00000000
-0.14193744 1.65859226 4.55682713 1.00000000
-0.18220545 1.09101332 4.56452468 1.00000000
0.18454662 1.03751498 4.71623839 1.00000000
0.26353691 1.54687436 4.71588978 1.00000000
-0.10112680 1.66301563 4.58141430 1.00000000
-0.18391611 1.15927017 4.60019383 1.00000000
0.13902871 1.01695995 4.62262828 1.00000000
0.26443114 1.49495702 4.73069536 1.00000000
-0.05988909 1.66730888 4.60582885 1.00000000
-0.18260534 1.20739756 4.57320449 1.00000000
0.10242668 1.03179744 4.66874804 1.00000000
0.26540328 1.44307187 4.74677958 1.00000000
-0.01999737 1.66999551 4.62629359 1.00000000
-0.18202270 1.26357814 4.56132593 1.00000000
0.06180944 1.03314989 4.65369354 1.00000000
0.26646368 1.39122224 4.76431243 1.00000000
0.01974561 1.67451518 4.65130625 1.00000000
-0.18353050 1.33194667 4.59279326 1.00000000
0.01974656 1.04743397 4.69673862 1.00000000
0.26762459 1.33941196 4.78349493 1.00000000
0.06217705 1.67834364 4.67499677 1.00000000
-0.18238775 1.37999808 4.56928399 1.00000000
-0.01988019 1.02511135 4.59761280 1.00000000
0.26489264 1.26533606 4.73883540 1.00000000
0.10209336 1.65986243 4.64946965 1.00000000
-0.18187843 1.43614998 4.55892434 1.00000000
-0.05965753 1.02743386 4.58677691 1.00000000
0.26291692 1.20026894 4.70656641 1.00000000
0.14061386 1.66235366 4.66958075 1.00000000
-0.18322443 1.50459506 4.58704005 1.00000000
-0.10238611 1.04002884 4.62290321 1.00000000
0.26404601 1.14831661 4.72522702 1.00000000
0.18367669 1.66604775 4.69319721 1.00000000
-0.18221279 1.55259914 4.56624693 1.00000000
-0.14373764 1.03961504 4.60115041 1.00000000
0.26530219 1.09639579 4.74597364 1.00000000
0.22541690 1.67043129 4.71848591 1.00000000
-0.18346075 1.62113179 4.59233202 1.00000000
1.12657717 -1.05250141 5.00940065 1.00000000
1.69781676 -1.04892633 5.19227439 1.00000000
1.69644232 -0.64895229 5.18839719 1.00000000
1.13017817 -0.65323284 5.02350933 1.00000000
1.64342219 -1.04478843 5.16926399 1.00000000
1.69951418 -0.68560809 5.19680659 1.00000000
1.15560192 -0.63782202 4.93993472 1.00000000
1.12366599 -1.01541001 4.99781646 1.00000000
1.59257171 -1.04722320 5.15546100 1.00000000
1.70280993 -0.72248795 5.20582801 1.00000000
1.23055601 -0.65019781 5.04257286 1.00000000
1.12966399 -0.98445291 5.02163055 1.00000000
1.54228763 -1.04990113 5.14281644 1.00000000
1.69928276 -0.75837669 5.19619564 1.00000000
1.26784313 -0.64280737 5.01356265 1.00000000
1.12380861 -0.94058454 4.99834603 1.00000000
1.50127415 -1.05710461 5.15818297 1.00000000
1.70276447 -0.79548138 5.20572563 1.00000000
1.32618521 -0.64650697 5.04422235 1.00000000
1.12978152 -0.90920016 5.02206025 1.00000000
1.42200158 -1.03776689 5.06114830 1.00000000
1.69898866 -0.83109555 5.19541330 1.00000000
1.37233453 -0.64183219 5.04695545 1.00000000
1.12690225 -0.87241660 5.01060302 1.00000000
1.37367459 -1.04102232 5.05150740 1.00000000
1.70263377 -0.86842823 5.20539015 1.00000000
1.42148169 -0.64294180 5.05935148 1.00000000
1.12120943 -0.82933961 4.98796467 1.00000000
1.32576395 -1.04451822 5.04295248 1.00000000
1.69864066 -0.90376126 5.19448358 1.00000000
1.50135320 -0.65447330 5.15828373 1.00000000
1.12707713 -0.79738112 5.01126067 1.00000000
1.27806076 -1.04983355 5.04979130 1.00000000
1.70242753 -0.94132286 5.20484813 1.00000000
1.54271833 -0.64918662 5.14396474 1.00000000
1.12433496 -0.76105726 5.00034835 1.00000000
1.21929731 -1.04147874 5.00153050 1.00000000
1.69824731 -0.97637179 5.19342987 1.00000000
1.60065331 -0.65152178 5.17871335 1.00000000
1.11894973 -0.71882697 4.97893235 1.00000000
1.15740974 -1.03412091 4.94700925 1.00000000
1.70215546 -1.01416132 5.20412609 1.00000000
1.64375151 -0.64704468 5.17006620 1.00000000
1.12464863 -0.68626484 5.00155756 1.00000000
-0.72252917 0.15451082 4.19977215 1.00000000
-0.26199585 0.15362275 4.37129470 1.00000000
-0.25953849 0.80295673 4.33853784 1.00000000
-0.72388504 0.81170666 4.20709306 1.00000000
-0.30515428 0.15349935 4.36373243 1.00000000
-0.26389659 0.75668952 4.39920892 1.00000000
-0.67964362 0.80709445 4.19995736 1.00000000
-0.72279556 0.21350966 4.20114653 1.00000000
-0.34783060 0.15320168 4.35186556 1.00000000
-0.25920272 0.68510755 4.33358034 1.00000000
-0.63566073 0.80544841 4.21398756 1.00000000
-0.72293131 0.27250434 4.20187340 1.00000000
-0.39417187 0.15655290 4.37611753 1.00000000
-0.25838485 0.62288017 4.32202902 1.00000000
-0.59760238 0.81078284 4.24241384 1.00000000
-0.71900916 0.33132514 4.18248861 1.00000000
-0.43548672 0.15575165 4.35210949 1.00000000
-0.26341259 0.57542249 4.39203602 1.00000000
-0.55004060 0.80254790 4.22643392 1.00000000
-0.71846801 0.38968028 4.17985971 1.00000000
-0.47624358 0.15491625 4.32731569 1.00000000
-0.26273785 0.51289182 4.38248013 1.00000000
-0.50468137 0.79543606 4.20771056 1.00000000
-0.72403615 0.45380226 4.20751491 1.00000000
-0.50762123 0.15100847 4.22766158 1.00000000
-0.25708095 0.44410246 4.30342780 1.00000000
-0.47276369 0.81321198 4.30133235 1.00000000
-0.72387156 0.51273764 4.20675307 1.00000000
-0.54474506 0.15130285 4.19113654 1.00000000
-0.26278697 0.39462273 4.38288932 1.00000000
-0.43133787 0.81204511 4.31788078 1.00000000
-0.71835648 0.56912377 4.17947059 1.00000000
-0.59934733 0.15404069 4.25224570 1.00000000
-0.26206455 0.33262795 4.37266978 1.00000000
-0.38479166 0.80272636 4.28891844 1.00000000
-0.71791952 0.62734581 4.17735797 1.00000000
-0.63794046 0.15313552 4.22618576 1.00000000
-0.26141171 0.27102868 4.36342183 1.00000000
-0.34868939 0.81586416 4.36212039 1.00000000
-0.71749916 0.68551484 4.17532760 1.00000000
-0.68249797 0.15283915 4.21435292 1.00000000
-0.26231329 0.21479866 4.37586412 1.00000000
-0.30199364 0.80526189 4.32706906 1.00000000
-0.72424773 0.75303190 4.20883703 1.00000000
-1.06045524 -1.24971406 3.78715471 1.00000000
-0.43923420 -1.24153165 3.99218770 1.00000000
-0.44400674 -0.59565910 4.02933244 1.00000000
-1.06317807 -0.59522135 3.79573672 1.00000000
-0.50007876 -1.25336599 4.00378664 1.00000000
-0.44291255 -0.65492911 4.02093470 1.00000000
-1.00100133 -0.59216662 3.80358914 1.00000000
-1.05740133 -1.18671529 3.77801160 1.00000000
-0.55676077 -1.25292456 3.97741476 1.00000000
-0.44184493 -0.71394607 4.01273925 1.00000000
-0.94465090 -0.59306265 3.82495711 1.00000000
-1.05900335 -1.12749218 3.78286378 1.00000000
-0.60749758 -1.24534218 3.94176346 1.00000000
-0.43944354 -0.76688800 3.99441168 1.00000000
-0.88547504 -0.59000364 3.83263328 1.00000000
-1.06197273 -1.07280939 3.79182390 1.00000000
-0.66730090 -1.24982545 3.92907444 1.00000000
-0.43852638 -0.82543544 3.98736084 1.00000000
-0.83587944 -0.59235412 3.87037613 1.00000000
-1.06357426 -1.01314582 3.79667472 1.00000000
-0.72581257 -1.25426701 3.92058809 1.00000000
-0.44174178 -0.89033889 4.01171993 1.00000000
-0.77496223 -0.58846067 3.87365106 1.00000000
-1.06053638 -0.95066575 3.78757966 1.00000000
-0.77331860 -1.24100613 3.86622074 1.00000000
-0.44080037 -0.94889591 4.00448467 1.00000000
-0.72461865 -0.59490551 3.91571607 1.00000000
-1.05758334 -0.88859147 3.77873910 1.00000000
-0.83590061 -1.25000856 3.86996764 1.00000000
-0.43992287 -1.00734147 3.99773550 1.00000000
-0.67174052 -0.59675704 3.95167193 1.00000000
-1.06493914 -0.83525336 3.80088567 1.00000000
-0.89191230 -1.25209496 3.85560714 1.00000000
-0.44280111 -1.07289900 4.01953026 1.00000000
-0.60857637 -0.59162169 3.94829554 1.00000000
-1.06199830 -0.77326922 3.79208212 1.00000000
-0.94283810 -1.24501711 3.81834128 1.00000000
-0.44190430 -1.13132753 4.01263426 1.00000000
-0.55378064 -0.59076593 3.96023498 1.00000000
-1.05922757 -0.71172263 3.78378939 1.00000000
-1.00098679 -1.24676732 3.80312631 1.00000000
-0.44454698 -1.19727696 4.03263757 1.00000000
-0.50397828 -0.60046027 4.03078085 1.00000000
-1.06070608 -0.65159952 3.78827086 1.00000000
-1.27751136 -1.10549158 3.67172421 1.00000000
-0.69380401 -1.11175839 3.89996468 1.00000000
-0.69087134 -0.65788846 3.88649948 1.00000000
-1.27912163 -0.65811579 3.67583523 1.00000000
-0.74202764 -1.10494409 3.86386667 1.00000000
-0.69257882 -0.70172082 3.89453269 1.00000000
-1.22638060 -0.65743665 3.69382051 1.00000000
-1.27697649 -1.06486379 3.67045534 1.00000000
-0.79913680 -1.10892397 3.85409321 1.00000000
-0.69288234 -0.74083961 3.89593323 1.00000000
-1.17485004 -0.65989580 3.72025512 1.00000000
-1.27645694 -1.02428102 3.66922337 1.00000000
-0.84734581 -1.10310198 3.81692722 1.00000000
-0.69465080 -0.78505434 3.90425416 1.00000000
-1.12002512 -0.65856741 3.73549111 1.00000000
-1.28021048 -0.98555748 3.67829321 1.00000000
-0.89676711 -1.09675857 3.78272271 1.00000000
-0.69027405 -0.82034789 3.88353372 1.00000000
-1.06429179 -0.65687765 3.74910787 1.00000000
-1.27967166 -0.94489226 3.67701489 1.00000000
-0.96129523 -1.11012902 3.80081901 1.00000000
-0.69205467 -0.86462732 3.89191216 1.00000000
-1.01294954 -0.66006079 3.77742129 1.00000000
-1.27915024 -0.90427230 3.67577846 1.00000000
-1.00445517 -1.09956855 3.75051746 1.00000000
-0.69240225 -0.90384134 3.89352084 1.00000000
-0.96166661 -0.66211839 3.80234793 1.00000000
-1.27864957 -0.86369823 3.67459204 1.00000000
-1.06466602 -1.10656103 3.74994681 1.00000000
-0.69417509 -0.94844038 3.90186211 1.00000000
-0.89823302 -0.65473158 3.78821837 1.00000000
-1.28214751 -0.82426800 3.68304582 1.00000000
-1.11829618 -1.10507688 3.73039087 1.00000000
-0.68994891 -0.98289914 3.88185425 1.00000000
-0.84907553 -0.65742407 3.82379855 1.00000000
-1.27663128 -0.77876418 3.66976901 1.00000000
-1.17703991 -1.11066100 3.72583323 1.00000000
-0.69625333 -1.03267576 3.91161215 1.00000000
-0.79417504 -0.65504753 3.83432445 1.00000000
-1.27624699 -0.73838175 3.66886299 1.00000000
-1.22634599 -1.10792461 3.69349447 1.00000000
-0.69208101 -1.06684891 3.89185935 1.00000000
-0.73848265 -0.65486667 3.84872474 1.00000000
-1.27954868 -0.69858711 3.67684423 1.00000000
-1.15611940 -0.01936814 3.69372059 1.00000000
-0.68164827 -0.01852313 3.82940114 1.00000000
-0.68078160 0.63536851 3.82589629 1.00000000
-1.15692980 0.64314763 3.69625894 1.00000000
-0.73017078 -0.01861646 3.84293311 1.00000000
-0.68624165 0.58070409 3.85152957 1.00000000
-1.10715662 0.63945937 3.69190195 1.00000000
-1.15636715 0.04019010 3.69441759 1.00000000
-0.77004934 -0.01991304 3.81223181 1.00000000
-0.68157864 0.51710436 3.82954176 1.00000000
-1.06541671 0.64081458 3.71019471 1.00000000
-1.15560727 0.10111660 3.69241631 1.00000000
-0.81725812 -0.01997594 3.81906183 1.00000000
-0.68657190 0.46113090 3.85297784 1.00000000
-1.02475967 0.64151631 3.72729720 1.00000000
-1.15637937 0.16259570 3.69451840 1.00000000
-0.85599855 -0.01980293 3.78769133 1.00000000
-0.68224460 0.39849817 3.83257032 1.00000000
-0.97703360 0.63762788 3.72904548 1.00000000
-1.15593903 0.22207806 3.69337194 1.00000000
-0.90186394 -0.01983426 3.78942535 1.00000000
-0.68194930 0.33712007 3.83112768 1.00000000
-0.93885362 0.63886281 3.75619785 1.00000000
-1.15525522 0.28145787 3.69157313 1.00000000
-0.93927993 -0.01965541 3.75719186 1.00000000
-0.68262562 0.27955555 3.83425826 1.00000000
-0.90125629 0.64425621 3.78773976 1.00000000
-1.15731980 0.34341946 3.69713744 1.00000000
-0.97610727 -0.01948058 3.72566479 1.00000000
-0.68227095 0.21817920 3.83253637 1.00000000
-0.85678136 0.64069221 3.79107143 1.00000000
-1.15664769 0.40280501 3.69537015 1.00000000
-1.02549549 -0.01952406 3.72913517 1.00000000
-0.68255233 0.16038402 3.83380896 1.00000000
-0.81233532 0.63970372 3.80024563 1.00000000
-1.15577207 0.46204263 3.69305755 1.00000000
-1.06099438 -0.01934432 3.69689910 1.00000000
-0.68211440 0.09906642 3.83169553 1.00000000
-0.77266008 0.64197438 3.82358902 1.00000000
-1.15472192 0.52111413 3.69027724 1.00000000
-1.10891792 -0.01936329 3.69644445 1.00000000
-0.68191328 0.04121069 3.83069847 1.00000000
-0.73134045 0.64260130 3.84864509 1.00000000
-1.15797502 0.58406764 3.69902591 1.00000000
0.49614371 0.75326361 4.23415192 1.00000000
1.12436362 0.75591649 4.47735284 1.00000000
1.11618333 1.17478614 4.44858091 1.00000000
0.50026858 1.18940286 4.26473962 1.00000000
1.05476950 0.74635638 4.41433435 1.00000000
1.12214048 1.14388381 4.46941898 1.00000000
0.55305613 1.17774529 4.25218369 1.00000000
0.49778469 0.79358604 4.24646118 1.00000000
1.00859577 0.75376440 4.42754033 1.00000000
1.11896889 1.10128458 4.45834948 1.00000000
0.61257176 1.18251994 4.28434613 1.00000000
0.49398837 0.82644724 4.21785132 1.00000000
0.95580488 0.75645344 4.42448650 1.00000000
1.11580358 1.05891503 4.44730170 1.00000000
0.66710212 1.18067600 4.29567477 1.00000000
0.49557738 0.86676807 4.22976930 1.00000000
0.89753328 0.75614344 4.39814262 1.00000000
1.12846614 1.03196737 4.49157895 1.00000000
0.72731151 1.18328551 4.33308618 1.00000000
0.49206244 0.89937300 4.20327769 1.00000000
0.84022588 0.75614066 4.37361379 1.00000000
1.12525065 0.98944026 4.48035610 1.00000000
0.78252920 1.18135070 4.34438226 1.00000000
0.50034646 0.95492449 4.26557339 1.00000000
0.78381445 0.75645538 4.35091811 1.00000000
1.12205942 0.94716056 4.46921784 1.00000000
0.83973913 1.18427010 4.37113734 1.00000000
0.49682413 0.98732907 4.23902641 1.00000000
0.72309716 0.75119514 4.31131589 1.00000000
1.11890777 0.90513820 4.45821773 1.00000000
0.88930139 1.17395700 4.36249673 1.00000000
0.49818420 1.02789219 4.24922091 1.00000000
0.66493924 0.74890979 4.28376482 1.00000000
1.12483885 0.87265883 4.47896534 1.00000000
0.95420157 1.18398175 4.41775203 1.00000000
0.49492132 1.06012966 4.22462697 1.00000000
0.61374879 0.75538291 4.29194879 1.00000000
1.12169444 0.83076002 4.46799055 1.00000000
1.01390026 1.18770533 4.44777186 1.00000000
0.49624661 1.10068031 4.23455971 1.00000000
0.55441017 0.75408805 4.26174868 1.00000000
1.11862838 0.78913868 4.45728946 1.00000000
1.06426455 1.18262896 4.44897340 1.00000000
0.49321758 1.13279100 4.21172616 1.00000000
